ply
format ascii 1.0
element vertex 1371
property float x
property float y
property float z
property uchar red
property uchar green
property uchar blue
end_header
1.17183 4.26147 13.2673 50 12 1
-4.18464 3.14014 8.94872 110 98 61
1.17386 4.20174 12.9806 122 86 66
-1.36952 3.96429 11.7324 147 72 0
1.25289 4.19871 12.2841 132 73 38
-2.04195 3.76824 10.4316 189 178 166
-5.03239 3.6325 9.33156 72 68 56
-5.06661 3.70942 9.43856 119 116 105
-0.401668 4.68408 12.7339 104 71 53
-2.04288 3.98484 10.4978 111 104 94
-4.17569 3.5209 8.84338 64 58 24
-0.574376 4.72315 12.6891 130 122 112
-4.24705 3.55969 8.89443 28 28 18
-1.85808 4.40473 11.5225 119 106 88
-2.04476 4.11196 10.2746 92 84 78
1.53086 4.88897 12.7131 240 207 178
1.44595 4.89453 12.5545 255 249 224
-1.03996 5.03265 12.3052 222 189 168
-4.35358 3.88765 8.53099 98 92 82
0.209423 4.61614 10.9159 128 106 82
-4.89617 4.05271 8.80169 154 144 131
-4.29029 3.96799 8.7147 130 128 109
0.0903693 5.24615 12.3682 176 152 122
-4.73479 3.97409 8.59254 46 40 32
-4.49828 3.97903 8.63834 162 148 126
-4.6736 4.08845 8.85502 244 235 210
-4.56012 3.95371 8.52299 122 114 98
-5.32329 4.40439 9.50126 144 136 124
2.01453 5.67552 13.2258 174 143 120
-0.771565 5.61283 12.5818 88 36 16
-2.3244 4.69111 10.1555 164 158 148
-0.494187 5.75974 12.9117 220 190 176
-0.850287 5.70612 12.7226 150 86 42
-0.829608 5.69824 12.5766 90 30 1
2.00697 6.11777 13.725 138 74 42
-0.854188 5.48452 11.8847 132 52 16
-0.118663 5.8522 12.8269 76 58 45
0.00645592 5.66588 12.3104 144 114 90
-4.72427 5.23812 10.0861 96 92 85
0.122555 6.29873 12.8566 99 66 46
-5.01555 5.33163 9.9338 108 100 92
-2.27288 5.31817 10.0374 125 120 110
-4.8968 5.4629 9.85982 183 172 164
-4.8982 5.53556 9.92799 218 208 196
1.76405 7.07609 13.5979 139 121 104
-4.64735 5.57427 9.68283 162 130 126
-4.55619 5.56626 9.61823 43 42 37
-4.91178 5.79263 9.97421 35 26 23
1.9512 7.39778 13.9155 8 2 0
-0.433828 6.54463 11.5954 42 39 38
-0.373474 7.07188 12.6174 36 35 34
2.6721 7.24382 13.1932 95 86 78
2.13144 6.94976 12.5259 4 0 0
-2.36911 5.59715 9.40905 159 146 132
-0.113938 7.10204 12.4624 48 48 48
-4.92909 6.01565 9.79042 88 79 71
-2.72855 5.73663 9.13873 200 184 162
1.05707 5.6408 9.15973 24 22 24
-4.94522 6.66455 10.0631 149 142 136
0.783023 7.681 12.4573 22 21 19
-2.39639 6.97703 10.3822 37 34 32
-1.9881 6.72263 9.66534 8 6 4
-3.8601 2.20944 9.61597 72 68 64
-2.90596 2.17937 9.37279 97 74 75
-4.14134 2.56835 8.683 56 52 46
0.493566 3.69378 13.1982 148 104 76
-2.10543 3.20244 10.4231 68 61 51
0.083864 3.84117 12.7391 66 16 2
0.072343 3.97434 13.0167 132 79 54
0.170521 3.95645 12.6366 73 16 1
-1.98203 3.37224 10.1363 48 37 32
1.09651 3.93981 12.2986 150 88 57
1.16179 4.09127 12.7628 47 8 0
-1.55481 4.08254 11.8632 228 212 182
-2.04196 3.9678 11.0804 200 186 166
-2.03423 3.71322 10.3086 114 105 96
-4.94469 3.67919 9.296 135 134 123
-4.22531 3.53322 8.92232 74 68 30
-0.577702 4.74313 12.7196 130 122 112
-4.17783 3.58581 8.5271 132 134 120
-4.28099 3.68829 8.67433 58 56 44
-4.93922 3.92194 9.11766 142 134 118
-2.7156 5.434 13.1495 206 197 182
2.81856 5.91103 14.9348 70 40 31
-1.06896 5.11669 12.4325 238 210 190
-0.580772 5.20408 12.6878 230 215 195
-4.02773 3.7241 8.37112 79 80 71
0.0901647 5.08663 12.1688 148 132 110
-4.68956 3.92382 8.5419 143 133 121
-0.910087 5.36897 12.6129 146 66 2
-4.83276 4.17529 9.11016 248 238 212
-5.0702 4.24398 9.22453 42 38 30
-0.939072 5.36562 12.4932 188 108 34
-4.65516 4.0536 8.74794 122 116 98
-4.95841 4.14156 8.887 141 134 121
-3.87924 3.94656 8.53399 151 132 88
-1.27908 5.41313 12.3727 192 156 125
-2.26187 4.62769 10.1379 55 50 39
-0.930739 5.65546 12.7489 190 124 44
-0.517949 5.59432 12.6007 234 217 198
-4.61286 4.18702 8.72686 20 16 12
-0.442893 5.55129 12.4326 230 201 184
-0.750035 5.78318 12.6309 106 50 10
-4.65799 4.3666 8.8539 77 66 60
-4.57377 4.32678 8.6419 183 178 167
-1.01251 5.98945 12.7827 204 134 68
-0.807412 5.96217 12.7033 104 52 24
0.208375 5.73401 11.6644 118 89 68
-5.34044 5.16177 9.71749 211 204 188
-2.35129 5.37287 10.3843 12 6 2
-4.93631 5.22767 9.72981 147 138 130
-5.23401 5.59079 10.3702 162 154 146
-2.14742 5.10697 9.60823 144 137 126
-5.32091 5.37523 9.72149 114 110 98
-4.76159 5.50346 9.95361 224 208 200
-2.4967 5.35354 9.44672 228 212 188
-1.20286 7.34523 13.0346 21 17 12
-4.33626 5.78317 9.60225 38 36 30
1.75998 7.30429 12.781 32 28 24
-2.64499 5.68581 9.20866 202 186 162
0.11113 7.20099 12.2072 59 56 57
-4.34915 6.4872 10.0626 51 46 36
-2.73243 6.88983 10.8816 4 4 2
-2.53721 5.93352 9.15049 148 135 126
-2.6385 6.7912 10.501 28 28 27
-3.69936 1.92632 10.0457 70 65 56
-4.36573 2.38191 10.1942 168 160 144
-2.33084 2.13754 9.39081 38 23 20
-2.10915 2.47223 9.43167 124 116 106
-2.3009 2.62756 9.86325 28 24 18
-3.59084 2.6 8.76324 60 58 52
0.460431 3.67567 12.632 211 184 160
0.269146 3.94582 12.7541 126 70 38
-0.413275 4.03801 12.3066 148 86 53
1.162 3.63229 11.3237 43 10 0
1.12502 4.14717 12.7309 132 82 57
0.472917 4.16921 12.4825 60 15 2
0.74631 4.23489 12.32 144 78 40
-2.02103 3.82389 10.4046 116 114 98
-2.14689 4.1352 10.8157 162 153 136
-4.34753 3.50961 8.79041 38 38 28
-4.27194 3.5702 8.94468 24 25 16
-2.75818 3.63175 9.23005 26 23 19
-0.625106 4.93736 12.7754 84 75 65
1.51407 4.91685 12.7666 240 208 182
-4.27054 3.67345 8.62807 63 60 48
1.39308 4.798 12.2708 226 189 159
-0.112803 5.06109 12.3291 102 70 48
-4.06395 3.759 8.42823 70 70 62
-0.883269 5.32204 12.5802 213 124 36
-0.327921 5.14916 12.224 96 78 58
-5.01801 4.16856 9.10015 126 116 104
-4.24407 3.93569 8.61847 124 122 104
-4.42631 3.93199 8.57567 198 188 171
-4.33315 3.94816 8.61253 159 152 134
-4.67568 3.99897 8.65985 176 170 155
-1.20182 5.39033 12.3305 209 132 34
-0.639645 5.8338 13.2107 222 211 196
-0.944225 5.67502 12.7595 212 148 57
0.0170766 5.30446 11.5633 112 88 70
2.13739 6.31738 14.1333 140 107 92
0.0190075 5.5932 12.1707 135 104 79
-0.842535 5.86935 12.655 37 4 0
0.173488 5.13574 11.0533 61 27 8
-4.69525 4.31803 8.49025 49 46 37
-2.41313 5.12265 10.5122 200 194 186
-0.57836 5.54886 11.738 56 26 12
-4.51503 4.46746 8.77822 180 168 152
-5.38526 5.21171 9.80264 208 200 185
-4.96035 5.39865 9.86391 113 109 102
-4.96746 5.70764 10.3447 230 207 201
1.96257 7.47042 14.2329 50 43 31
-4.63632 5.56164 9.63664 220 205 195
-0.872555 6.91058 12.7772 101 94 82
-2.53017 5.40681 9.53389 225 211 186
1.9779 7.26792 13.7458 116 106 94
-4.88429 5.76613 9.82379 76 72 65
-5.88445 6.28258 10.6138 160 152 138
-2.87929 5.29865 8.80803 215 202 176
-2.41954 5.70844 9.60461 162 148 134
-2.3053 6.05797 10.0722 50 46 41
0.289584 7.19147 12.1796 34 32 32
-4.27106 6.33665 9.86358 183 175 164
0.646268 7.22444 11.9511 44 44 42
-4.77145 6.75852 10.4587 150 144 136
1.18184 7.31294 12.0902 56 55 53
-2.64286 5.89528 8.98375 165 158 146
-2.61294 6.77932 10.4682 40 38 37
-3.43497 1.80255 9.42293 68 64 54
-2.91791 2.05214 9.55895 184 174 160
-3.92582 2.21438 9.76686 76 72 65
-2.32195 2.4888 9.57935 68 46 46
-4.1457 2.57786 8.70782 56 52 45
0.991234 3.69828 12.783 200 176 159
1.33782 3.86227 13.0196 200 172 145
-1.22739 3.88275 12.215 206 186 166
-0.27908 4.14567 13.1263 73 20 3
-0.15035 4.16571 13.0047 81 32 14
-2.11713 3.58841 10.5857 74 68 60
-4.04702 3.04905 8.6711 144 130 80
1.91532 3.99369 12.347 222 180 140
-2.01678 3.9874 11.3523 158 146 126
-4.95802 3.46778 9.39691 190 186 165
-2.17483 4.14428 11.5919 202 189 168
-2.03208 3.88838 10.3294 44 38 30
-0.59042 4.78158 12.83 193 182 170
-2.67031 3.52719 8.94463 31 28 24
-0.61083 4.80348 12.6876 148 138 125
-4.23074 3.63738 8.53467 72 69 56
-4.87676 3.84159 8.93804 150 143 126
-4.15858 3.77031 8.56697 42 42 38
-0.886705 5.15066 12.4165 186 134 98
-4.33211 3.8549 8.48924 96 89 79
0.0359786 5.30957 12.5684 192 164 127
-4.74107 4.17109 9.08137 162 148 125
-4.94194 4.16089 8.98947 46 44 37
-0.957737 5.59546 12.5118 118 48 6
-4.50199 4.10633 8.48633 7 2 4
-3.58956 4.36297 8.72751 20 19 18
-2.34274 5.00965 10.3147 201 193 184
-4.49036 4.4273 8.72888 170 157 140
-4.79918 5.25671 10.3101 62 58 46
-5.34594 5.18613 9.73892 152 144 132
-5.35697 5.28196 9.60833 184 174 160
-2.31421 5.41782 10.2363 95 90 80
-4.94844 5.59275 10.0653 194 185 174
-0.373325 6.8896 13.0656 170 162 148
-0.49187 6.90117 13.0297 205 199 188
-0.354535 7.14687 13.545 20 16 14
1.83432 6.69305 12.769 92 82 71
1.94109 7.38579 14.1332 72 64 53
-2.4824 5.25336 9.24767 232 218 192
1.99402 7.43036 14.1228 110 100 88
-2.21884 4.73442 8.22025 238 224 198
-4.68599 5.80881 9.84724 144 135 126
-2.9128 5.30999 8.85297 221 208 182
1.16269 7.14412 11.7775 38 37 35
-3.51749 6.61474 9.37582 66 60 55
-2.07897 7.0348 10.1593 0 0 0
-2.95863 6.046 8.37243 132 123 110
-3.8699 2.01928 9.79441 29 25 18
-2.26238 2.48535 9.44106 36 22 22
-4.103 2.54183 8.58852 50 46 40
-3.60529 2.61736 8.82175 63 61 56
-0.185372 3.9883 12.8968 149 86 49
-0.28741 4.12707 13.1326 78 22 7
-3.89062 3.02094 8.74622 3 2 2
-1.483 4.03918 11.9607 130 70 30
-4.33139 3.49679 8.77404 34 34 22
-4.22232 3.51547 8.84409 26 28 16
-3.87539 3.50781 8.51614 197 178 96
-4.1823 3.61731 8.53712 140 145 130
1.43897 5.01291 12.872 212 194 164
-4.87956 3.87427 8.99217 147 140 123
2.63318 5.20288 13.1168 70 42 32
-4.11935 3.73296 8.43238 17 16 12
-4.94454 4.12026 8.79569 168 160 145
-0.944073 5.52748 12.3569 146 84 42
-0.500088 5.57932 12.5618 232 212 196
-2.24359 4.58717 9.89654 141 135 126
-0.0196649 5.46309 12.1744 18 9 6
2.02913 6.11908 13.9323 76 26 9
-0.864522 5.8969 12.9054 85 33 6
-4.7151 4.32188 8.52026 76 71 59
-4.86215 4.52916 8.98341 8 6 4
-1.0084 6.0671 12.7897 200 148 118
-2.52061 5.65557 10.9452 12 9 6
-5.38307 5.29143 9.61658 192 183 168
-0.299147 7.02279 13.48 73 64 53
-5.17552 5.40804 9.54908 80 76 64
-0.318069 6.94147 13.1306 10 7 4
-4.88778 5.77184 9.82355 76 72 65
-5.46455 5.87621 9.87822 174 166 152
-4.47842 5.85921 9.72418 36 32 31
-3.85738 5.59139 8.97474 119 116 106
-2.63712 5.67042 9.14073 205 190 164
-4.68582 6.54716 10.0776 136 130 124
-2.57489 5.97195 9.23616 168 152 136
-2.64093 6.59133 9.70901 120 110 98
-3.70982 2.0169 9.93715 90 88 78
-3.6551 2.22379 10.2275 54 54 46
-3.00313 2.33575 9.49953 40 39 34
-2.30387 2.66845 10.1267 116 108 99
-4.76673 2.61949 9.34088 6 4 4
-3.64017 2.44103 8.75478 79 76 69
-4.30103 2.67288 9.03294 53 49 42
0.521211 3.73947 13.1858 136 71 37
0.391561 3.85659 13.3464 206 186 170
1.192 4.19789 12.368 140 85 51
-2.03044 3.73695 10.3853 198 186 167
-0.591877 4.79055 13.1347 196 184 163
-4.28977 3.56368 8.59878 128 124 112
-0.679412 5.10796 12.9192 216 208 192
1.44924 4.93163 12.6448 248 237 211
0.269533 5.03792 12.0812 114 111 106
-0.604956 5.30913 12.5681 180 162 139
-4.95527 4.52941 8.98138 66 59 46
-4.68194 4.42728 8.81606 213 205 194
2.08359 6.39297 14.1131 126 63 10
-4.49489 4.43402 8.72561 188 176 160
-4.81972 5.03807 9.97599 202 196 182
1.92168 6.26227 13.4531 87 46 26
-0.479145 7.19233 13.7028 211 201 188
-5.23416 5.96251 10.5589 30 28 22
-0.338234 7.11285 13.4707 5 2 0
1.73795 6.68312 12.8148 136 124 112
-4.82052 5.76289 9.96507 214 206 194
2.03358 7.01995 13.1721 124 110 102
2.22203 7.25481 13.5771 66 56 46
-2.43521 5.69388 9.57626 164 149 134
-0.16657 7.17979 12.6399 44 42 40
-3.82688 5.53982 8.87903 119 116 104
-4.65064 6.49759 9.98842 138 132 126
-4.81672 6.4992 9.80449 112 104 98
-2.04123 7.01562 10.0793 0 0 0
0.988982 4.00109 12.584 146 92 63
-1.25316 4.00643 12.0988 160 77 0
-1.21937 5.26421 12.2444 216 134 56
-1.20673 5.45859 12.5041 214 134 50
-0.831965 6.05216 12.7283 136 84 56
-0.939087 6.03056 12.652 175 136 97
1.14482 6.29265 12.4989 84 48 30
-4.38312 6.56884 10.2068 94 86 78
1.15682 7.10191 11.7139 60 60 58
0.402164 7.21947 11.8035 48 47 46
-3.87759 3.5093 8.53748 198 178 98
-0.633099 4.93453 12.6554 204 195 182
-0.906333 5.14091 12.4116 138 68 16
-4.64752 4.04055 8.73667 142 136 120
-3.86175 3.90156 8.46562 148 134 90
-0.99062 5.67832 12.4711 110 35 2
-4.55095 4.36848 8.72372 118 106 92
-0.832565 6.08548 12.787 134 82 56
1.49911 6.25802 12.4327 62 17 0
-4.40555 5.63634 9.54493 70 68 62
-2.72887 5.96774 9.14031 105 102 92
1.07639 3.92495 12.2288 145 83 56
-4.10927 3.39954 8.65304 88 82 46
-4.17972 3.54296 8.52426 29 33 24
-0.326872 5.13571 12.1956 126 104 80
0.148725 5.13319 12.1245 41 34 18
-0.97497 5.4695 12.5094 186 101 22
-1.16375 5.339 12.1239 202 121 38
-1.05421 5.4961 12.4958 148 68 16
-4.59643 4.33798 8.68781 183 176 166
1.98395 6.33666 14.0486 142 76 30
-0.690155 7.24718 12.9267 12 8 6
-2.30597 2.64121 9.8929 74 66 59
-3.55264 2.58185 8.69021 70 68 64
-1.20853 3.59933 12.1875 132 83 42
1.24964 3.95981 13.0719 78 26 4
-0.641913 4.93706 12.6784 194 184 170
-1.11181 5.78519 12.4351 124 62 5
-3.00841 5.12894 8.85557 180 166 150
-2.8061 5.24519 8.97018 208 193 174
-3.67365 2.56136 8.69887 70 70 61
-0.0426215 3.81163 13.592 234 194 154
-1.50077 3.71477 11.8916 151 108 58
-1.85002 4.1468 11.411 186 172 147
-3.83639 3.46689 8.41851 192 172 92
0.0911346 5.05946 12.1008 136 118 98
-1.27378 5.42301 12.3515 228 206 185
-3.02636 5.15351 8.93599 76 68 54
1.87149 7.25234 12.5732 42 36 31
-4.37149 6.60768 10.202 62 54 47
-5.23526 6.83628 9.87859 143 136 126
-3.25167 6.6784 9.18642 117 110 101
-3.97048 3.0372 8.56049 218 198 121
-2.83295 3.50568 9.17019 34 24 24
2.21528 4.4134 12.0954 198 184 162
-3.87097 3.50444 8.51345 197 177 98
-2.04057 4.31664 10.4521 208 200 187
-5.04308 4.19094 9.175 100 92 86
-0.826699 5.77993 12.7161 74 25 3
-0.803068 7.16569 13.0445 6 2 2
-1.0575 7.12915 12.8645 52 52 46
-0.692294 7.16643 12.7208 11 8 8
-2.37486 6.90532 9.81891 37 34 32
-2.9753 2.52516 9.28872 59 42 41
-1.50791 3.68943 11.8277 214 190 153
1.1919 3.99019 13.0685 141 84 50
1.03138 3.93241 12.3171 140 86 62
-0.678912 5.05525 12.906 204 194 176
-1.17154 5.2833 12.5037 220 210 196
-0.672374 5.7181 12.7801 58 36 27
0.414259 6.26707 12.5907 110 85 60
-2.83965 5.77842 9.32606 124 112 98
1.19504 3.92631 13.3335 144 108 82
-2.8526 3.5156 9.22197 35 28 26
-3.80573 3.49803 8.55144 200 176 102
1.55383 5.73684 12.597 42 6 0
-0.201986 6.48888 13.1452 108 80 70
-1.16593 7.15474 12.9567 70 62 54
-4.90217 5.8406 9.79022 58 54 48
-2.33109 6.07446 10.1204 50 48 40
-5.2235 6.78355 9.82153 208 201 188
-5.08143 3.68551 9.45992 47 46 34
-4.89955 3.62365 9.09247 120 116 108
-4.10514 3.68381 8.43312 118 119 112
0.0582248 5.21395 12.2235 100 76 40
-1.13888 5.42091 12.3675 138 51 2
-0.957236 5.53594 12.4858 145 68 1
-1.12416 5.85116 12.5802 127 76 18
-0.956287 5.95635 12.5401 116 54 9
-5.35245 5.9354 9.79074 91 85 74
-4.34652 5.82148 9.66868 46 42 37
-4.48054 5.8416 9.66689 52 47 38
-2.69309 5.95984 9.07385 138 132 121
-3.1476 2.18283 10.1627 98 88 76
-3.99407 2.23642 9.71414 37 36 28
-4.75834 2.57304 9.22245 14 12 8
-0.816003 5.70354 12.8005 66 20 3
-1.22856 5.6054 12.2296 103 52 20
-0.933883 5.83336 12.534 104 32 1
2.05847 6.41543 14.2056 194 112 46
-4.64821 4.3778 8.64439 62 58 52
-5.22466 5.15215 9.31091 130 122 110
-4.99323 5.38654 9.75379 86 83 77
-0.0821804 6.89899 13.3402 146 134 121
-5.10966 5.27643 9.3639 110 106 98
-0.504179 7.0787 13.3997 136 130 120
-0.638034 6.95668 13.0927 130 123 114
-4.66005 5.77427 9.77024 100 92 84
1.53828 7.40521 12.5081 91 89 88
-4.45089 6.69086 10.3605 6 2 0
-4.70433 6.58601 9.94121 15 10 8
-0.124353 3.92855 14.0617 171 111 70
-4.80037 3.3268 8.98971 191 186 167
-4.72715 3.50652 8.97135 105 116 98
-4.26819 3.6035 8.97336 41 40 22
-0.158881 5.19067 12.6698 90 57 41
-0.846856 5.67343 12.4681 139 72 32
2.34077 7.29917 12.9123 25 20 14
0.576181 6.9945 11.6838 32 32 32
0.792182 7.33277 12.1075 30 30 29
-4.74837 6.64542 10.0825 21 16 14
-3.29077 6.77451 9.35324 120 112 102
-4.66136 2.39874 9.48428 154 145 131
-4.78399 2.66281 9.61897 102 98 88
0.438852 3.68991 12.865 206 182 162
0.137764 4.10347 13.0196 113 56 29
-5.06107 3.54569 9.32606 178 174 156
-0.552815 4.78588 13.0248 199 182 162
-4.93042 3.66313 9.27179 42 44 30
-2.05509 4.02183 10.5904 130 120 109
-4.21193 3.56921 8.6247 40 50 38
-4.124 3.74038 8.48319 24 22 18
-4.55628 4.0402 8.65524 103 94 80
-0.92632 5.55682 12.5978 160 98 32
2.1243 6.22874 13.9551 107 80 66
-0.20904 6.46597 13.1325 140 114 102
1.6919 6.39495 12.6633 208 180 163
-2.72768 6.03396 9.26698 170 162 147
0.0613741 3.88196 12.8174 67 17 0
1.8874 3.83445 12.104 236 182 146
-4.99859 3.49789 9.47104 194 188 168
-4.97735 3.55965 9.16827 62 60 50
-4.99361 3.60894 9.18626 110 108 98
-0.406982 4.74214 12.8532 106 78 62
-4.92254 3.59707 9.05085 71 68 56
-0.575084 4.7582 12.7354 120 112 104
-5.08211 3.87787 9.48887 52 47 42
-4.34619 3.63701 8.7831 118 116 104
-4.18175 3.80798 8.64437 18 18 12
-4.11422 3.88395 8.49512 28 34 26
-0.408563 5.46564 12.3491 132 107 83
-0.711717 5.65 12.7124 42 25 16
2.02599 6.36254 14.0385 158 74 7
-4.80334 5.62923 9.68334 33 27 26
-4.68311 6.51659 10.0342 137 130 124
-4.74196 6.63015 10.0472 6 3 0
-2.53514 6.96781 9.70491 32 32 28
-4.46951 2.01677 10.6268 68 62 48
-3.97537 2.21771 9.66746 34 30 25
-4.67399 2.37408 9.94793 161 151 138
-4.86816 2.72332 9.51042 14 12 8
-0.15544 5.10973 12.1604 62 49 32
2.10204 6.15239 13.7603 116 85 69
-4.60778 4.36427 8.70418 198 190 182
-4.83482 5.28148 9.59864 126 120 111
1.6984 6.45715 12.7843 212 181 162
-5.31603 5.83713 9.64409 218 210 198
-4.89896 5.84455 9.68793 105 100 94
-2.31282 6.09982 10.1745 56 50 44
-5.36812 6.19569 9.95307 110 104 90
1.52509 7.33054 12.4059 55 53 50
-3.63761 1.89704 9.82213 59 54 46
-3.18182 2.17412 9.45833 74 74 66
-2.9003 2.1898 9.39401 100 78 78
-0.0244494 3.70393 13.2139 162 108 72
-1.23519 3.97972 12.0827 174 103 6
0.515527 3.97534 12.3697 144 86 53
1.885 3.82288 11.9954 204 161 126
-5.14933 3.61377 9.59874 112 120 100
-5.00427 3.64555 9.38411 52 46 38
-4.24101 3.66232 8.58189 52 54 44
-0.832521 6.05745 12.6611 76 38 17
-4.83312 5.3937 9.69427 209 200 189
-2.36239 6.18963 10.3301 51 46 42
-2.58731 5.64011 9.22259 56 49 44
-3.26407 6.47821 9.18601 40 37 30
1.33662 3.9903 13.2877 174 152 127
-2.25972 3.63967 9.95309 22 18 14
2.25333 4.39972 12.0984 209 200 184
1.38974 5.2099 12.703 18 2 2
-3.06654 5.4585 8.78438 84 76 67
-2.6352 6.06964 9.40947 171 156 137
-2.36469 6.77814 10.3316 2 1 0
-2.10448 2.76977 10.4454 62 51 40
-1.04878 5.09444 12.3746 184 149 123
-0.891919 5.31226 12.5698 218 136 46
-1.25987 5.253 12.3174 165 132 108
-0.889508 5.38169 12.5938 158 70 0
1.54736 5.92234 12.4737 200 132 95
2.85853 7.20561 12.9089 72 67 56
-0.18048 7.09971 12.1428 61 60 59
-2.61571 6.75181 9.74675 78 70 62
-4.23156 2.30848 9.99369 136 126 114
-4.32555 3.69468 8.74817 71 71 58
-0.897068 5.34778 12.5425 141 62 0
2.53429 7.14687 12.9011 78 72 68
-3.93256 2.91096 8.68803 40 39 34
-1.96091 4.0074 11.3789 154 142 122
2.32681 7.12293 12.4723 2 0 0
-3.78781 1.93074 9.58172 42 38 32
0.0160366 3.81924 13.6223 226 170 130
-2.0432 3.40933 10.4383 50 40 29
-0.969153 5.90868 12.567 189 122 62
2.10553 7.33537 13.7994 112 101 93
-1.60717 6.93238 9.91144 49 44 37
-4.19965 2.26337 10.0387 181 164 151
2.34732 6.44743 14.8716 54 30 14
2.03173 6.90172 12.9546 48 42 36
-0.3119 4.29342 13.3004 144 84 52
-4.74273 2.62531 9.60088 66 64 52
-4.72435 2.55674 9.17832 22 18 12
-4.8543 2.91329 9.33562 169 159 148
-1.1013 4.02016 12.2785 122 79 31
-2.00936 4.01136 11.4129 104 92 72
-4.90871 3.40428 9.10416 128 145 116
-2.01735 3.97937 10.4365 136 128 118
-0.146734 4.66966 12.5852 50 4 0
-1.02039 5.38108 12.4576 206 123 50
-1.05207 5.4987 12.5011 132 52 2
-0.655639 5.84055 12.9343 81 56 40
-2.33054 5.55155 9.32634 144 136 126
-0.0540101 7.24611 12.6545 30 29 27
2.18222 7.57584 13.1137 62 60 56
-2.69969 6.9471 10.7475 46 43 40
-3.6633 2.02157 9.7906 92 88 82
-3.10679 2.2092 10.1207 152 144 134
-3.76398 2.16385 9.39866 65 60 55
-4.79831 2.55159 9.61925 167 158 146
0.100834 3.86873 12.7749 151 94 71
-1.09585 3.96454 12.207 154 111 57
0.990552 4.05814 12.7662 150 97 66
-0.480358 4.19146 12.8575 140 76 48
1.15741 4.13984 12.662 114 64 43
-1.35405 3.99887 11.8545 138 62 12
1.26981 4.40441 12.9394 126 72 40
-0.530002 4.74292 12.9885 152 107 86
-2.03562 3.97448 10.4033 174 168 153
-4.8532 3.83625 8.88653 150 142 125
1.4403 5.12882 12.9502 170 120 87
-4.20413 3.75743 8.61479 97 98 91
-0.327864 5.14796 12.2147 77 60 42
2.15469 5.7952 13.7107 219 200 186
-1.21584 5.53373 12.3114 178 95 36
-0.417723 5.5283 12.3506 218 198 186
-0.951073 5.7409 12.408 128 47 11
-0.361407 6.30508 13.0033 96 59 54
1.69804 6.46624 12.8222 200 168 148
1.51684 6.59581 12.6416 56 14 0
1.99114 7.35188 13.9022 112 100 92
-5.18217 5.6629 9.33414 162 154 143
-0.653319 6.88062 12.1863 16 14 10
-4.28074 5.70944 9.46181 42 38 34
-2.3491 6.93022 10.2936 41 40 37
-3.94167 2.91317 8.6774 34 34 27
-1.29349 4.04316 12.0045 139 56 1
-1.50141 4.09266 11.7951 252 222 186
-1.96218 3.85961 10.7447 166 156 138
-4.9037 3.64574 9.21854 68 70 58
-2.05311 4.00394 10.4816 116 110 98
-4.21173 3.54157 8.58335 56 67 49
-0.876255 5.6015 12.5839 72 24 0
-0.689186 5.77402 12.7029 80 42 19
-5.20878 5.02725 9.43904 203 196 182
1.72343 6.90782 13.2282 84 45 26
-0.817337 6.9363 12.8245 176 169 158
-5.18877 5.72581 9.40286 89 82 71
-3.87215 5.65474 9.04498 114 112 101
-2.85345 5.9367 9.23695 116 108 98
-2.59768 6.06838 9.39614 164 152 138
-3.75737 1.92312 9.47447 40 36 31
-3.08362 2.18227 10.0475 176 166 156
-4.85188 2.73545 9.47117 24 20 14
-2.05541 4.01401 10.5365 92 87 78
-2.05605 4.01062 10.4392 122 114 102
-4.84443 3.99892 8.70362 138 130 117
-4.11516 3.88256 8.49554 30 36 27
-3.90482 3.9287 8.54504 144 128 83
-0.941405 5.57742 12.4563 98 31 6
-4.22923 5.77016 9.53586 112 108 98
-2.27499 6.0195 10.0043 50 44 36
-2.67166 6.48499 10.1251 6 5 3
-3.12871 2.15131 10.0146 72 63 53
-3.88726 2.23385 9.76953 69 64 59
-2.33975 2.59873 10.017 46 40 33
1.27204 4.07884 13.0564 158 98 64
-2.04029 3.99888 10.3706 106 100 88
-3.85493 3.92633 8.48009 163 145 98
-0.410635 5.55151 12.3689 224 203 184
1.69968 6.47213 12.8119 209 183 164
-1.18561 7.17647 13.0027 82 76 66
-4.926 5.92776 9.81135 186 182 176
-2.67124 6.49951 10.1426 12 9 8
-3.6363 2.44469 8.73231 76 74 66
1.25981 3.98374 13.4709 152 98 65
-0.455499 4.11 12.5851 124 60 34
2.14391 5.7068 13.5398 220 198 184
2.03243 5.78664 13.5199 118 86 62
-0.448538 5.57981 12.4809 228 208 184
-4.8231 4.43528 8.78052 30 28 20
1.97738 6.26153 13.7633 176 97 26
1.91693 6.33545 13.6061 80 48 28
1.83758 6.28447 13.2859 139 109 88
2.44281 7.36847 13.5788 167 158 148
-0.575744 7.10409 12.6524 41 40 36
-0.241553 7.13097 12.3988 40 40 36
-4.69436 6.52483 10.0461 150 142 136
-2.61591 6.37917 9.92647 4 2 2
-4.09747 6.49651 9.83267 84 80 69
-0.848459 4.08982 13.3786 201 182 162
-4.85218 3.64968 8.92858 48 45 36
-4.46566 3.71953 9.01581 122 119 106
-4.12972 3.64945 8.44628 134 136 124
2.57057 5.73249 14.1515 80 55 40
1.27784 5.26519 12.5335 132 72 42
-4.96014 4.09902 8.83174 120 111 102
2.30487 6.19538 14.1853 71 50 35
2.11119 6.22872 13.9237 96 65 52
-4.55881 4.77731 9.43111 164 159 146
-4.68494 5.38117 9.69375 230 210 202
-3.15226 5.58372 9.02298 79 73 65
0.198154 7.22909 12.1457 2 0 0
-4.33644 6.50842 10.0573 28 24 19
-2.11166 2.74443 10.344 62 56 50
-4.86755 3.36837 9.08349 190 189 168
2.69748 5.60849 14.125 78 52 38
2.10296 6.05888 14.1832 180 145 124
-5.36373 5.274 9.56254 166 156 144
-2.63858 6.64396 10.397 0 0 0
-2.24918 2.71722 10.0257 81 74 69
-2.09406 3.21991 10.4674 112 104 94
-2.07395 3.21865 10.3746 64 56 45
-1.46574 3.65938 11.7704 145 82 18
-1.44061 3.9364 11.8477 210 130 34
-1.35794 4.18465 11.8596 224 136 36
-0.513471 4.6833 12.8499 134 87 64
-4.23117 3.63411 8.55503 45 46 34
-4.81075 3.7928 8.77827 142 133 116
-0.970442 5.05765 12.3327 190 102 38
-4.71422 3.93734 8.59027 126 117 102
-0.976878 5.76409 13.1073 233 178 130
-0.718191 5.68895 12.8531 106 98 94
-0.958227 5.55947 12.3529 194 114 56
-1.02823 5.60203 12.3452 203 118 38
-1.03475 5.64143 12.3303 126 48 5
-1.02567 5.77174 12.6433 156 78 28
-1.01179 5.7131 12.4524 178 100 42
-0.874254 5.79577 12.4173 132 72 37
0.107346 6.02717 13.0355 57 29 6
-4.89399 5.94401 9.68283 130 123 114
-5.23569 6.67817 9.86503 74 68 59
-4.39349 6.63541 9.23941 52 51 49
-4.30156 6.96439 9.4469 56 54 54
-2.27596 2.5469 9.48336 34 22 19
-4.71964 2.67385 9.20594 10 6 3
-0.51467 4.70612 12.796 206 184 164
-5.11729 3.78825 9.62399 116 114 105
-2.17924 4.64163 11.0961 184 175 163
-1.20035 5.24467 12.2044 210 133 50
-1.25315 5.27667 12.1561 202 127 67
-3.87603 3.94969 8.52896 152 133 90
-1.06515 5.46383 12.4377 192 106 36
-0.888069 5.64974 12.8519 166 130 100
-1.09184 5.57493 12.3278 216 129 48
-0.947867 5.59779 12.375 128 44 2
-4.88846 5.45935 9.83462 214 207 196
-2.48167 5.38986 9.50777 220 206 182
-3.2241 5.74068 9.31238 102 96 88
-4.1061 6.55243 9.90929 80 76 72
-5.18543 6.6019 9.74123 83 76 67
-5.14239 6.73782 9.71101 120 113 100
-2.29811 2.48999 9.57722 40 28 24
1.27641 3.88008 12.5291 153 92 56
-1.50974 3.87171 11.9267 126 50 4
-1.37004 4.22714 11.9789 220 132 32
-2.06254 4.13687 10.3983 50 44 34
-4.5462 4.02977 8.63758 94 88 72
-4.78011 4.28883 9.00959 56 53 49
-0.492986 5.57994 12.5661 234 216 203
-5.29295 5.17146 9.41482 188 178 166
-4.30136 6.69241 9.22576 32 31 29
-4.23744 6.8715 9.30208 48 45 45
-4.0012 2.15555 9.53547 158 120 118
-2.26509 2.61938 9.91882 119 112 102
-2.27139 2.52806 9.45767 43 28 26
-2.27482 2.75296 10.2253 47 44 33
-2.24476 2.68665 9.928 92 86 79
0.00296182 3.75091 13.3459 200 156 118
-1.50015 3.82792 11.8222 130 55 9
-2.04996 3.50823 10.3445 94 85 75
-0.628028 4.86195 12.6589 153 144 132
-2.32311 4.71149 10.2616 150 142 135
-0.684643 5.82745 12.6418 34 6 2
-0.963662 6.00756 12.7562 54 7 1
-5.47049 5.99662 9.95702 216 208 197
-0.656597 7.06168 12.553 8 6 3
-5.06073 6.5776 9.47585 160 153 140
-4.68471 2.57307 9.42652 74 68 57
-0.0964056 3.90304 13.9794 193 151 108
-4.73311 2.81228 9.04349 180 170 155
-2.03732 3.10665 10.0991 66 60 52
-1.50078 3.79472 11.8289 142 71 22
-3.77966 3.0498 8.50504 144 128 72
-2.01103 3.96268 11.2825 172 160 140
-2.0895 4.04438 11.2957 200 190 170
-2.38732 3.55294 9.56065 12 2 2
-2.07683 4.15727 10.3762 109 102 92
-2.03162 4.29376 10.4156 196 185 172
-0.821518 5.32734 12.5428 151 87 27
-2.33501 4.73552 10.304 160 152 144
-4.55909 4.16003 8.62684 25 18 16
-4.93603 5.41524 9.87662 112 106 98
-4.89996 6.74324 9.98249 1 1 1
-4.74988 6.65131 9.46593 2 2 2
-4.15811 2.05254 9.94237 142 117 110
-2.32438 2.57313 9.93679 32 25 20
-2.28433 2.61395 9.40964 44 30 26
0.073017 3.93358 12.8206 140 87 54
-1.19505 3.91653 11.9229 184 112 12
-4.94646 3.50458 9.0785 79 78 66
-4.07546 3.76256 8.44236 76 77 68
-0.644826 5.76574 12.5992 92 52 29
-5.37526 5.35044 9.8915 112 107 96
0.0261462 6.64032 13.1313 40 6 0
-0.0961852 6.86566 13.3051 154 142 130
-4.66098 6.57172 10.1666 188 180 172
-4.50522 6.46038 9.98397 187 180 172
-4.42749 6.61398 10.2647 42 36 30
-3.74254 6.10885 9.23154 92 88 82
-4.7494 2.57841 9.7481 62 56 48
-4.74796 2.52529 9.48912 177 166 154
-4.57284 2.48851 9.1054 77 70 60
-4.73476 2.63623 9.2274 11 8 4
0.0750284 3.82891 12.5665 142 88 54
-1.95188 4.03132 11.5165 246 231 201
-1.96747 3.89394 11.0826 149 137 118
-2.08601 3.95413 10.5941 44 38 34
-2.72443 3.60737 9.11865 24 20 18
-4.42337 4.36013 8.58837 178 164 144
-5.15592 5.38331 9.83578 96 94 84
-3.75825 6.07245 9.23291 88 86 80
-5.01645 6.49908 9.80567 186 178 169
-4.60973 6.59003 9.6606 46 44 40
-4.32001 1.97205 10.3375 74 68 57
-3.69075 2.53131 8.61167 82 82 73
0.0253875 3.86981 12.9738 68 18 2
-1.92035 4.11174 11.1997 92 88 76
-5.09163 3.90361 9.40361 196 188 172
-2.04732 4.36688 10.5517 218 207 192
2.61872 5.84193 14.4062 134 118 102
-4.57389 4.17285 8.59099 2 0 2
-5.39203 5.8875 9.76182 218 210 199
-4.33379 5.99516 9.91498 113 109 98
-5.08271 6.71526 9.88383 4 4 4
-4.63158 6.63151 9.72692 46 44 40
-3.93872 2.2001 9.5348 39 36 29
-3.1858 2.18556 9.57513 86 86 80
1.77729 4.4006 12.3431 120 70 48
-4.54104 4.12003 8.63551 78 74 68
-4.52353 4.3718 8.68953 146 135 116
-5.30655 5.18891 9.47181 162 154 141
-4.87014 5.33534 9.73241 162 157 146
-4.65109 5.37894 9.68752 199 186 179
-2.64461 5.69821 9.37934 106 97 86
-4.10843 6.59228 9.94273 66 60 57
-4.55774 2.52128 9.29856 90 86 74
-4.62916 2.5711 9.27316 108 104 97
-2.73179 3.5893 9.26151 42 18 20
-4.16089 3.53652 8.759 54 66 30
-4.56708 4.13674 8.67807 77 73 68
-3.54039 4.4096 8.71259 60 58 54
-4.70738 5.51103 9.89488 102 75 72
-4.74398 2.64268 9.54478 110 106 98
-2.05481 3.9808 10.4047 117 112 99
-3.55548 4.44281 8.7752 75 74 70
-3.14269 2.15298 10.0002 31 26 24
-2.31559 1.97638 9.36912 90 80 69
-4.89621 2.70378 9.74082 12 8 4
-0.0216242 3.528 12.7066 194 146 104
-1.41744 3.68204 11.8627 162 96 32
-1.35384 3.69588 11.9562 164 84 12
1.26918 3.88967 12.5371 156 98 62
-4.81808 3.57775 8.91341 110 108 100
-4.11551 3.48075 8.61458 30 39 14
-4.42531 4.83356 9.48287 64 62 54
-2.90122 2.19145 9.38905 117 92 94
-4.70954 2.49246 9.27309 119 110 96
-4.59304 2.5795 8.90737 26 25 19
-4.29166 3.81873 8.39941 90 84 76
-0.149729 5.09704 12.1372 88 70 50
-4.68022 2.42432 9.62091 175 167 154
-4.69313 2.48504 9.37083 196 188 174
-5.00738 3.51124 9.32502 90 104 82
-4.17248 3.52778 8.50513 38 46 33
-0.841214 5.64931 12.6932 71 30 6
-4.32977 3.84452 8.5129 84 82 70
-4.51853 4.28676 8.60761 112 100 88
-4.89094 5.69001 9.89614 35 29 28
-2.64015 6.19463 10.0401 134 124 112
-5.21053 6.79366 9.82006 144 140 128
-4.13412 6.65618 8.93311 9 8 8
0.00471172 5.49631 12.4305 16 6 0
-2.46075 5.38333 9.7796 168 157 142
1.2684 4.27168 13.6731 102 38 5
1.26238 4.11376 12.0631 130 76 42
-1.19978 4.12118 11.669 176 114 50
-2.05509 4.01402 11.2071 202 193 174
-0.554005 4.9934 13.7116 74 25 4
-0.406177 4.7891 12.2506 118 116 112
2.07264 5.10196 12.4785 202 172 149
0.562565 4.12609 9.65203 49 25 20
-1.07851 5.5374 12.2282 232 143 60
-0.919032 5.58138 12.2429 186 105 42
-2.19212 4.89293 8.85756 166 160 151
0.930586 7.11819 13.1835 108 57 33
-0.476274 7.19703 12.9205 48 48 44
-0.609586 7.25836 12.921 81 79 76
-2.53587 6.10192 8.00358 70 69 68
1.89085 3.86993 12.087 225 176 136
-1.96095 3.89393 11.1555 178 166 148
-2.08184 4.30946 11.4314 202 195 184
-2.15197 4.14452 10.932 103 96 85
-0.664779 5.00455 13.4238 112 104 94
-4.11772 3.69886 8.47439 118 119 112
2.07225 5.14756 12.5563 160 126 104
-1.18675 5.29797 12.0308 166 94 30
-2.27324 4.61762 10.0298 123 118 111
-5.18488 5.38231 9.55338 94 90 81
-2.06187 3.53867 10.4245 136 128 118
-0.45071 4.69503 12.9251 88 40 16
-2.58725 3.44046 8.87532 44 16 20
-0.608653 4.84243 12.4467 206 198 184
2.58219 8.52678 20.9476 163 130 107
-0.754851 5.02465 11.3739 184 132 71
2.12106 6.10019 13.663 121 96 78
1.84858 6.20901 13.1882 124 92 74
1.81139 6.49335 13.0585 83 44 26
1.89638 7.35413 13.8564 26 20 14
-1.56107 3.8215 12.242 163 111 59
0.0752517 5.11506 12.0853 197 168 126
-4.48467 3.96112 8.60228 160 150 131
-2.35461 4.8541 10.7915 211 208 198
1.80558 6.5569 13.1847 86 46 26
-0.935094 7.07307 13.0884 178 172 160
-4.11756 6.13533 9.51559 189 182 170
-2.10213 3.53145 10.5945 51 42 38
-1.00392 4.96936 12.2359 140 74 48
2.01192 5.63504 13.1226 206 180 160
-5.55187 5.42304 9.9618 192 183 171
1.6875 5.10244 10.1423 94 53 31
1.42026 6.31828 12.5187 64 18 1
-2.49867 5.28654 9.36596 216 204 182
-4.13553 5.67625 9.34014 130 126 117
-2.36491 6.76712 10.0364 38 36 31
-2.3108 2.68876 9.45481 154 107 113
-2.04682 3.39278 10.4152 54 44 34
-1.25667 5.48325 12.5431 209 130 30
-0.803826 5.88726 12.9302 106 52 4
-4.87197 4.53967 9.02345 14 14 12
0.212638 5.82766 12.5438 148 124 91
-0.61999 6.10595 12.7908 1 2 0
0.753758 7.11134 13.4875 114 60 31
-0.849055 7.02762 13.0261 202 196 182
-2.33402 2.6474 9.49681 84 52 53
2.08229 3.59563 9.97067 198 191 175
-2.46818 5.01502 11.1168 222 216 204
1.91323 6.31747 13.5583 88 48 27
-2.25411 5.28247 9.96834 164 156 146
-4.75108 5.88592 9.98778 120 112 104
-4.49094 6.35318 9.76978 198 192 183
-4.49168 6.41438 9.91389 202 196 188
-3.81714 6.11562 9.19552 96 94 85
-2.18782 2.15495 9.11468 146 132 121
1.91427 3.7852 11.7145 226 204 162
2.10448 5.32074 12.9585 202 172 149
2.27364 7.15699 17.0632 96 47 22
0.230099 5.72474 12.3372 153 128 96
1.85703 6.43393 13.5452 174 146 126
0.332982 6.89614 13.9173 114 89 64
-4.66106 5.67504 9.92007 36 36 34
-4.15833 6.26787 9.63182 36 31 26
-2.08822 4.23162 10.4997 86 80 68
-4.62581 6.5325 9.37618 75 74 74
-0.963762 5.08909 12.4668 144 80 38
-4.67885 5.46929 9.81667 104 74 68
-4.28586 2.07965 10.2365 105 90 82
-4.83706 6.65304 9.8495 2 1 0
-4.3302 6.73766 9.25117 32 32 31
-4.19276 3.54011 8.80916 40 42 29
-4.42272 4.84565 9.46137 60 56 50
-4.10424 3.44169 8.55924 38 38 29
-1.28029 5.65919 12.3686 191 174 151
-4.87596 5.3405 9.70189 78 74 64
-5.24899 5.90207 9.50264 138 132 120
-0.554759 4.79352 12.9609 172 154 140
2.19278 4.22663 11.6835 204 196 182
-4.86022 3.98526 8.58896 214 205 189
-3.5401 6.68344 9.51425 78 74 68
-4.87638 3.95749 8.59878 214 203 188
-4.39512 6.45335 10.1338 121 112 102
2.08883 5.34196 12.9568 80 41 22
-1.03184 5.43404 12.5122 150 66 0
2.11999 5.54223 13.0759 231 216 200
2.11193 5.70287 13.4169 90 64 43
1.97205 5.57891 12.8272 64 28 8
1.95596 5.63566 12.9268 109 64 36
1.94606 5.7441 13.1156 76 26 4
-0.535876 6.19992 13.8273 122 76 72
1.79371 5.71347 12.9312 68 27 5
-1.06518 5.90117 12.6665 247 194 155
-2.45173 5.55377 10.7847 12 7 4
1.68992 6.60788 13.1272 205 174 151
2.89664 7.62854 13.3702 56 50 44
-5.3591 3.20651 10.372 194 186 174
-5.48067 4.18567 10.1806 188 184 170
-2.37269 4.8889 10.8906 198 194 184
-0.488458 5.58589 12.5428 230 210 192
1.91223 5.31822 12.1501 96 54 26
-2.45827 5.60922 10.8298 20 16 10
-5.86454 5.73166 10.5634 182 172 160
1.81516 6.60464 13.258 75 44 26
-5.9887 5.969 10.9319 130 126 114
-5.65161 3.91456 10.5862 178 183 160
-5.54147 4.19883 10.346 74 68 60
-5.59276 4.2871 10.4603 203 198 184
2.1107 5.45233 12.8836 223 208 191
-0.499979 6.07226 13.4903 122 66 64
-1.19537 11.9881 21.3737 19 16 14
2.03063 3.79739 11.8253 100 61 36
-5.9069 4.23431 11.0176 100 96 84
2.13954 5.62687 13.3114 220 209 191
-0.116591 5.90488 12.9532 80 61 47
1.92637 6.27846 13.4748 88 54 36
-1.89772 3.99268 11.6226 238 226 200
2.10996 5.37379 13.0905 125 94 74
2.13762 5.56596 13.1751 224 216 200
-2.50581 5.08136 11.3166 189 184 174
0.108806 5.87198 12.6248 70 36 13
1.74489 6.91784 13.2788 146 126 109
-4.78459 6.59983 10.0385 189 184 174
-5.28254 3.15243 10.2253 200 190 177
-5.60603 4.21437 10.4538 70 64 56
-5.57833 4.24978 10.3602 206 200 184
2.69438 5.36573 13.5734 71 48 36
2.10185 5.3636 13.0912 119 79 59
2.06311 5.56941 13.2358 98 50 27
2.05639 6.39517 14.083 196 119 48
-2.36022 5.3793 10.3718 13 8 6
-5.52183 6.43345 11.2025 34 30 28
-1.87892 4.0715 11.1311 111 109 96
-5.75105 4.37886 10.692 203 196 179
2.07635 5.29062 12.5808 222 207 189
2.05922 5.54138 13.1649 100 52 27
-1.43725 5.98183 13.326 240 216 196
1.98084 6.3091 13.7551 192 134 79
2.08308 5.17963 12.3258 218 217 202
1.55608 6.86708 13.5549 126 62 28
0.859955 7.20111 10.9775 24 22 18
-3.85512 2.19683 10.3538 93 91 86
0.445994 3.78466 13.3213 150 114 88
-2.07664 3.80491 10.5169 140 132 123
-4.71936 3.96244 8.54313 16 16 12
-3.71247 3.91946 8.55239 115 104 84
-2.21484 4.58043 10.0141 100 94 84
-4.67523 4.38842 8.72805 158 152 146
-2.58 5.44459 11.2343 206 202 196
-2.43374 5.56092 10.7142 18 14 10
-4.7846 5.5491 10.0306 40 36 30
-2.82928 6.76844 10.6646 2 1 0
-4.85786 6.60742 9.90094 18 15 14
0.256108 4.0306 12.9427 127 72 38
-4.1207 3.42844 8.54243 88 89 80
-4.87782 3.685 9.04223 91 90 80
1.52151 4.80721 12.435 245 212 184
-4.07452 3.75436 8.45376 108 110 102
-4.71234 3.9626 8.53172 16 16 12
-2.27736 4.67274 10.3151 140 134 126
-2.14729 4.45514 9.70682 66 61 52
-2.42156 5.16384 10.5779 202 197 191
-5.33231 6.02732 9.70425 128 122 109
-3.85906 5.64288 9.03416 118 116 108
-2.46157 5.80862 8.9404 171 160 150
-4.67007 6.51214 9.28845 4 2 3
-3.63628 2.08259 9.06637 75 70 67
-4.10945 3.81252 8.5348 102 108 98
-4.08987 3.87585 8.45957 32 42 32
-4.65046 3.91828 8.42265 17 17 12
-2.16718 4.5058 9.92667 115 110 101
-2.30569 4.67452 10.1789 97 92 86
-4.71591 4.4294 8.77649 26 20 16
-4.29274 4.35941 8.64556 208 192 177
-2.54191 5.36664 11.0877 202 198 192
-2.46411 5.60211 10.8651 16 12 7
-5.37222 6.01686 9.74865 159 152 140
-2.83404 6.78567 10.6769 6 4 3
-2.3831 6.96499 10.5115 42 41 36
-3.65795 6.44039 8.37679 14 14 14
-2.40224 2.29949 9.81046 148 124 119
-4.13488 2.73045 8.64153 14 12 10
-4.38682 4.44803 8.85437 186 170 154
-2.40183 5.13251 10.5336 202 197 190
-5.0047 5.77273 10.5324 42 38 33
-4.80155 5.59285 10.0826 56 52 46
-3.93978 5.7296 9.21668 118 117 109
-3.4184 6.73354 8.04668 28 24 20
-2.82248 1.98782 9.25238 192 181 172
-4.53708 2.50873 9.03155 118 114 102
-0.462623 4.52727 12.3133 201 182 164
-2.74709 3.55305 9.07983 91 86 82
-4.25822 3.91976 8.72456 14 16 12
-4.57861 3.887 8.50863 254 250 224
-4.4944 3.96018 8.56974 148 138 120
-2.3054 4.72148 10.3569 54 48 40
-0.482193 5.45378 12.2494 229 218 204
-4.2726 4.37731 8.72112 122 116 104
-3.95248 4.14073 8.08389 210 204 194
-2.41141 5.51425 10.649 16 12 8
-2.25911 5.36202 10.0393 177 172 162
-4.49649 5.73907 9.75547 80 78 75
-2.51397 5.85812 9.02777 174 160 150
-3.93034 2.21278 10.4954 94 94 84
-4.12084 2.23555 9.70234 90 82 68
-2.40078 2.30885 9.81504 161 138 131
-2.91994 3.12413 12.2027 134 126 112
-4.08985 2.70113 8.51666 18 16 14
-3.90435 2.87751 8.60126 46 44 40
2.06972 4.32383 13.4483 152 115 90
-4.21534 3.40875 8.51309 32 32 25
-3.8663 3.88994 8.47086 147 133 77
2.04408 5.67055 13.3627 93 48 22
-2.16669 4.47155 9.76807 54 50 44
-4.22376 4.30176 8.51365 204 188 173
-3.96065 4.15771 8.10284 220 212 203
-5.4444 5.81413 9.77104 138 130 120
-2.82389 7.04491 11.1542 4 3 2
-5.04213 6.55038 9.44198 145 140 130
-3.87103 2.61222 9.33976 86 84 79
0.41249 3.721 12.7664 206 186 171
-2.33691 4.40704 12.3292 203 192 174
-0.273698 5.62714 13.4547 99 78 54
2.07082 6.2846 14.726 130 108 88
-2.59241 5.4235 11.2866 206 199 192
-4.34127 4.44692 8.80479 214 204 192
-2.94391 7.26299 11.537 6 5 4
-2.84534 6.84219 10.7467 2 1 0
-4.90194 6.66696 10.2006 193 186 175
-2.54619 2.20633 10.1988 61 54 46
-4.27163 2.30342 9.82529 188 177 164
2.01815 3.80156 11.8264 116 80 52
-3.78964 3.03569 8.26101 238 214 124
-0.614542 5.07426 12.8499 66 60 54
-2.45576 5.20399 10.7676 224 216 206
-2.50025 5.63641 10.9117 42 38 34
-2.43121 5.64989 10.6334 136 130 122
-4.00626 6.3614 9.64786 91 86 78
-3.86309 6.30441 8.89911 36 36 32
-5.43636 2.74157 13.018 88 76 70
-4.77764 2.61384 11.3407 190 171 160
-4.46828 2.42998 10.5143 126 114 100
-2.55941 2.91839 11.0156 122 114 108
-2.10383 3.60733 10.6075 154 148 140
-2.2758 4.34988 11.4176 154 147 136
-3.78027 4.01608 8.69781 26 18 10
-0.429635 5.82919 12.899 119 66 64
-4.67342 4.38317 8.75228 90 85 79
-4.78817 5.58915 10.0659 86 82 78
-5.46926 5.83175 9.80026 157 150 137
-4.28452 6.35097 9.93994 165 158 146
-2.92599 6.28192 8.0579 72 71 69
-4.79163 2.61681 11.3648 198 179 168
-2.45341 2.64349 10.1241 40 32 28
-2.22614 4.24514 11.07 86 82 72
-5.221 3.9729 9.68472 68 66 57
-1.00576 5.79716 13.1365 214 167 119
2.00591 5.84384 13.6329 178 144 124
-0.87266 5.67962 12.7564 110 62 16
-2.46463 5.6121 10.8254 24 20 16
-4.51748 6.67618 10.4604 164 156 146
-3.78436 6.20001 8.27666 73 72 72
-4.74595 2.3229 11.3086 92 86 74
-4.86279 2.46622 11.6951 140 120 114
-3.66057 1.86781 9.22477 42 40 33
-3.54553 1.98566 9.50153 95 92 87
-4.42219 2.41944 10.5741 160 128 125
-2.50375 2.77714 10.6833 58 52 42
-5.44148 3.09937 10.6701 12 10 8
-4.90697 3.64083 9.09784 123 121 110
-2.31672 4.81214 10.6765 200 196 186
-4.45438 5.68501 9.65798 76 74 69
-5.3411 5.80975 9.64167 202 195 185
-3.14603 6.29571 7.42209 24 20 16
-5.27755 2.61629 12.5921 104 98 86
-4.56254 2.5216 10.778 72 63 50
-2.37176 2.30997 9.74548 162 138 127
-5.57036 3.36574 10.7695 189 181 170
-3.8102 3.07463 8.57145 150 136 87
-5.18092 3.93493 9.619 60 58 51
-5.35853 4.10035 9.93625 194 189 176
-5.12875 4.30203 9.35949 16 16 10
1.86157 6.4097 13.6613 152 124 108
-4.4 5.62099 9.53008 75 73 68
-5.34642 5.69909 9.55522 174 168 154
-5.04881 2.49431 12.0481 88 83 72
-2.31152 2.01939 9.42352 66 58 46
-2.35681 2.30209 9.69553 192 172 160
-4.62153 2.38556 9.40144 142 132 120
-2.69641 2.88358 11.01 45 40 34
-4.24644 3.55455 8.9638 64 59 22
-5.3404 4.09697 9.89763 196 192 178
-0.783461 6.11925 13.4602 76 36 16
-4.23246 4.31082 8.53164 196 182 166
-2.79405 6.98752 11.0682 8 7 6
-3.40175 6.04482 7.76001 26 26 26
-5.23126 2.89103 10.5014 79 74 66
-2.45693 4.61539 12.0554 90 85 76
-4.42985 6.52089 10.2625 187 181 170
-5.17965 6.57704 9.74845 98 93 84
-3.20561 6.20268 7.73545 75 75 75
-4.88996 2.90312 9.3075 194 184 171
-4.14144 2.76135 8.64046 16 15 12
-4.5832 3.67501 9.29831 34 34 24
-4.03326 3.72682 8.25241 20 22 18
-4.53039 4.07248 8.60106 55 52 49
-2.40837 4.9763 10.9557 224 220 205
1.98343 6.32257 13.7915 188 128 76
-4.21843 2.28795 9.8642 190 182 166
1.51917 6.34185 12.548 125 66 39
2.35071 7.38613 13.7531 92 86 80
-4.72574 3.55395 9.01758 139 137 125
-4.6078 4.32402 8.53478 19 17 15
-4.69809 5.89581 9.94337 48 47 38
-4.34251 6.39483 10.0912 168 162 152
1.89299 3.97499 12.3349 220 164 127
-3.95235 3.64774 8.1891 69 68 60
-2.72028 6.31225 10.2822 120 116 110
0.876473 7.64927 11.7721 56 52 42
-2.27566 2.4614 9.45473 60 41 40
-0.507612 4.28905 13.0114 133 70 40
-4.48068 4.68479 9.26611 222 214 204
-3.9009 5.86544 9.08141 176 170 160
1.97845 6.33037 13.7643 202 160 120
-2.66572 6.24202 10.1397 131 126 118
0.870644 7.6954 11.8537 28 26 16
-2.87187 2.17778 9.31345 117 89 92
-4.37547 3.64303 9.14893 10 12 6
-2.33652 4.74584 10.2415 110 106 101
-2.48882 5.83807 9.88755 165 152 136
-2.67995 5.89959 9.54541 218 206 185
-2.55672 5.96587 9.23224 174 160 144
-0.608155 4.77542 12.7815 198 187 172
-0.575636 4.80431 12.8172 56 50 48
-2.72919 6.4225 10.4662 132 125 114
-2.92478 2.17231 9.40864 106 86 82
-4.98207 3.48982 9.32367 80 108 79
1.52739 4.74149 12.2763 230 203 172
-1.07473 5.18273 12.4157 134 82 34
-0.90297 5.39407 12.6626 168 82 5
-1.08619 5.53286 12.6429 116 32 0
-4.66068 2.09962 11.0773 115 105 90
-4.1513 2.22854 9.89227 187 180 164
-3.91216 2.90087 8.62749 38 36 32
1.33384 4.02532 13.3936 74 24 4
-2.54713 5.81099 8.84355 144 140 132
-2.75934 6.99431 10.9511 1 0 0
-2.47438 3.36053 10.8464 22 18 15
-1.11752 5.5068 12.9172 171 87 13
1.57975 7.16386 13.804 9 0 0
-4.63707 3.46491 8.8608 106 109 91
-3.8826 3.49635 8.50875 194 178 104
-1.13381 5.22344 12.6076 242 226 206
-0.829521 5.36181 12.5916 156 94 29
-2.35385 3.63213 11.1062 28 22 16
-1.61473 4.05599 12.4641 150 78 3
-4.63412 3.24982 8.8462 200 187 171
-1.5366 4.11336 11.9783 207 172 138
-1.97582 3.97392 11.3081 150 141 121
-1.03609 5.04223 12.4399 132 75 46
-0.985278 5.0138 12.1401 218 212 198
-4.58547 4.33669 8.5613 37 32 29
-4.66142 5.34836 9.56946 156 146 136
-4.22929 5.46581 9.17351 156 148 138
-3.63795 2.62713 8.84806 77 74 69
-4.11139 2.72652 8.60657 48 44 39
-2.05725 3.4018 10.4362 29 23 20
-1.5215 4.08188 11.9182 216 183 152
-1.70057 3.54021 9.73413 176 167 155
-3.88291 3.31302 8.32588 20 20 13
0.885161 4.27711 12.3861 151 75 27
-0.866982 5.38634 12.6995 204 124 28
-4.48353 4.18093 8.54906 36 33 30
-0.727627 5.75085 12.5839 96 43 6
-4.55248 4.89246 9.54126 210 203 192
-2.75157 5.579 11.5993 213 207 195
-0.679431 5.83343 12.4943 44 14 2
0.206696 5.70433 12.2959 142 122 90
-4.96414 5.19544 9.67579 43 39 32
-0.804531 6.00461 12.5462 232 203 177
0.444278 6.18733 12.412 112 88 65
-4.81076 5.69754 9.68092 136 130 120
-4.22404 5.46926 9.16827 158 150 140
-2.92872 5.31698 8.88364 203 188 168
1.90907 7.35622 13.8906 5 1 0
-2.31126 6.02331 10.0071 50 44 40
-2.73871 5.78007 9.35102 206 190 166
1.68954 7.18036 12.9951 42 34 34
-5.18004 6.60639 9.75609 80 72 66
2.72898 7.47142 13.4281 59 57 52
-2.43546 6.9833 10.5074 40 38 36
-2.62198 6.57075 9.67217 110 102 92
-2.00091 6.69545 9.43904 8 6 6
-3.68045 2.0962 10.3063 36 34 30
-1.22214 3.62771 12.1292 194 104 10
-2.08954 3.56097 10.4406 86 76 72
-0.0290224 4.13426 12.7973 68 26 10
-2.40018 3.49483 9.42035 140 92 100
-2.12727 3.63837 9.83934 68 64 59
-3.89583 3.22656 8.10443 58 54 45
1.49616 5.0363 13.1114 252 248 226
2.75356 6.114 15.4608 68 36 22
1.38966 5.1915 12.6244 14 2 3
-2.31834 4.66386 10.2238 164 156 147
-4.23165 4.33342 8.57031 204 192 176
-2.53031 5.65039 10.9128 7 2 4
-0.0903752 6.84972 13.2817 180 166 155
-4.8593 5.81346 9.74641 58 53 48
-4.35973 5.76667 9.59161 70 66 60
-0.162284 7.09522 12.4951 50 47 43
-2.139 6.93308 10.2962 2 1 0
-2.93944 6.31032 8.66617 126 115 101
-3.50286 6.86398 8.21893 17 15 14
-2.92738 2.20032 9.43812 124 94 96
-0.0324117 3.89139 13.9119 240 210 168
-2.08272 3.53932 10.4194 144 136 127
-4.24053 3.64795 8.59163 62 60 47
-4.55858 3.91384 8.60153 238 228 203
-1.18586 5.31206 12.279 132 52 2
-0.779151 5.59637 12.6711 135 89 52
-3.74662 2.14115 9.41828 86 82 76
-0.0797691 3.90404 13.9647 212 158 114
1.11792 4.11502 12.7918 140 78 41
-1.03544 5.02717 12.4347 136 94 72
-4.90679 4.03987 8.73618 204 194 180
0.83353 5.23871 12.3556 120 64 36
-4.25283 4.3489 8.59511 206 194 176
2.07722 6.25937 14.0242 141 71 32
-0.0599215 7.11804 13.2675 46 42 42
-1.99009 4.34 11.4622 66 58 48
2.13523 6.26508 14.02 158 121 102
-3.21313 6.61855 9.08327 116 110 102
-1.65392 7.21882 10.144 98 92 82
-3.8781 3.01727 8.7078 5 2 0
-4.08566 3.06988 8.72592 134 122 81
-0.992719 5.08129 12.5407 190 154 134
-4.56925 4.3233 8.645 182 176 166
-0.832833 5.58499 12.6963 198 160 129
-2.08982 2.7409 10.3638 66 56 45
-3.7908 3.50944 8.57312 194 168 99
-0.550276 4.7827 12.9888 199 183 166
-2.23177 4.60628 11.1179 216 206 192
-1.04569 5.08392 12.5113 148 82 52
0.961519 5.22055 12.2 136 74 36
-5.32508 5.2313 9.6873 221 212 198
-5.27116 5.96816 9.61557 144 135 124
-2.71061 6.89182 10.7918 2 2 0
-3.85833 2.84609 8.57628 42 40 36
-1.5595 4.09169 11.911 230 219 194
2.14347 4.30087 13.4168 104 46 20
-0.898903 5.17171 12.4799 194 145 106
-2.68462 6.88432 10.6407 37 36 35
-2.7853 3.51427 9.27494 123 80 86
-4.25305 3.93789 8.59225 108 102 84
-0.878045 5.70501 12.8099 81 36 13
1.12822 4.26127 13.0617 97 52 28
-4.83467 5.48441 9.82419 178 172 162
1.95429 7.04819 13.2429 7 2 1
-3.44647 6.4715 9.25505 88 82 72
-1.50001 4.09762 11.8764 188 142 94
0.0609641 4.03935 12.9695 150 96 58
0.948441 7.04653 12.407 67 25 7
-0.58883 5.57161 12.6416 216 207 194
-2.27854 2.59076 9.29801 66 38 36
-2.87857 2.67449 9.30972 52 34 34
0.499289 3.65313 13.0444 153 108 82
-1.48503 4.03714 11.9894 140 72 15
-1.15762 5.81922 12.4998 148 93 42
-3.86439 2.99648 8.66625 6 6 2
-3.05143 2.1305 9.81829 134 128 118
-0.615955 4.99709 12.7173 222 216 206
-2.0624 4.45082 10.7192 216 206 192
-4.86123 4.02826 8.74283 110 101 90
-1.86642 4.38179 11.4372 141 128 110
-2.66924 5.72191 9.28383 204 188 168
1.30706 5.14277 12.5106 22 3 1
2.85338 5.84138 14.8108 44 26 11
-1.6303 7.15241 10.0349 33 26 24
-5.0441 3.51407 9.33849 165 167 148
1.46039 4.94743 12.7629 235 209 180
-0.762562 5.76825 12.779 166 92 50
-1.65698 7.18776 10.0761 24 22 18
1.54101 5.94926 12.5911 124 54 18
-2.93363 5.29469 8.89054 226 210 191
1.50426 7.35779 12.2532 45 42 41
1.31119 3.92911 13.3187 106 58 24
-1.01515 7.12378 12.9318 22 18 14
-1.16436 7.27213 12.8573 25 23 17
-2.09517 2.73021 10.3745 88 82 69
0.826375 7.1778 11.599 30 28 28
-4.21173 3.64436 8.52757 62 62 54
-4.6581 2.48919 9.29987 125 117 106
-4.10613 2.69171 8.64137 44 38 34
-1.31506 4.31024 11.9863 176 109 36
-3.95755 3.92983 8.55459 26 32 15
-0.931428 5.75539 12.7651 130 46 0
-0.758661 6.02551 12.8006 48 8 0
-5.11135 5.09813 9.34382 204 196 184
-4.8532 5.10953 9.25221 184 181 170
-4.81075 5.22674 9.43259 102 100 94
-4.91021 5.87543 9.69991 21 18 14
-2.50628 5.39788 9.31102 212 196 176
-2.46588 5.48099 9.30908 198 182 164
-2.70767 6.8841 10.6067 43 42 40
-4.84089 2.70439 9.58873 62 60 50
-4.16599 3.48805 8.74612 7 8 2
-2.47859 5.53615 10.7365 46 42 38
-2.45329 5.47136 9.28178 202 186 168
-3.79881 2.5926 8.66029 80 78 72
-4.08143 3.07223 8.72779 176 164 114
-1.14554 5.70345 12.6158 220 133 43
-5.08636 5.05947 9.31668 224 216 204
1.95585 7.36234 13.8345 6 2 0
-2.31767 6.79399 10.1803 42 38 38
-4.64365 2.41149 9.65139 155 146 132
-2.98052 2.31938 9.4372 48 44 39
-4.78721 2.53028 9.44952 156 146 138
-4.6883 3.28408 8.93641 200 192 176
-2.35323 2.60073 10.0786 44 40 32
-2.35 2.75433 10.1682 104 100 93
-3.60267 2.59471 8.7679 66 63 60
2.85896 5.71562 14.5381 60 31 15
2.16197 6.2153 13.8975 210 183 162
-2.48895 5.30274 9.34112 234 220 200
-5.04895 6.683 9.81054 5 4 4
-4.6263 6.47235 9.53122 3 2 0
-4.61037 2.39448 9.58253 182 172 158
-2.2467 2.63891 10.0353 122 119 104
-2.10053 3.56045 10.4575 80 74 62
-4.66788 5.2725 9.47658 218 211 204
