ply
format ascii 1.0
element vertex 394
property float x
property float y
property float z
property uchar red
property uchar green
property uchar blue
end_header
-0.462067 0.306309 -0.250976 0 255 0
0.295196 0.271154 -0.0564978 0 255 0
0.582154 0.22792 0.0820117 0 255 0
1.25042 0.20925 0.2225 0 255 0
1.90529 0.135988 0.508323 0 255 0
1.96056 0.126679 0.491246 0 255 0
0.116468 0.311883 -0.195784 0 255 0
-1.29849 0.335749 -0.309075 0 255 0
-1.78888 0.274026 -0.219284 0 255 0
-2.82532 0.0466162 0.220323 0 255 0
-2.00064 0.0969457 0.162083 0 255 0
-1.40606 0.0885312 0.367503 0 255 0
-1.04533 0.0469717 0.504396 0 255 0
-0.168002 -0.0578342 0.852989 0 255 0
-0.0340265 -0.00352016 0.741074 0 255 0
1.79637 0.23845 0.586302 0 255 0
1.8668 0.239736 0.559755 0 255 0
0.708443 1.21268 -0.0405448 0 255 0
-0.00150414 -0.473371 4.26335 54 102 173
0.00894791 -0.470043 4.27279 154 193 254
-0.0478217 -0.459823 4.26123 10 82 162
-0.0600633 -0.451684 4.25671 54 126 206
-0.0395988 -0.449876 4.24752 7 102 188
-0.0722326 -0.446003 4.26905 0 72 154
-0.0550738 -0.441923 4.27381 4 87 176
-0.0760686 -0.435589 4.26724 0 74 159
0.0109353 -0.425868 4.25887 68 167 242
-0.0535703 -0.416204 4.26641 2 88 172
-0.10526 -0.41443 4.28391 170 212 255
-0.183099 -0.318693 4.25406 69 160 247
-0.201854 -0.317325 4.26748 51 103 168
-0.163768 -0.313328 4.26151 70 167 254
-0.150817 -0.304128 4.26394 2 86 176
0.0246249 -0.295669 4.25968 65 154 238
0.0395791 -0.277776 4.25569 54 137 219
-0.199867 -0.283246 4.26733 80 178 254
-0.143412 -0.279019 4.25803 64 154 250
-0.124846 -0.275223 4.25139 111 170 242
-0.114785 -0.269612 4.24757 61 122 200
-0.205336 -0.271202 4.26561 73 166 252
0.0614986 -0.259231 4.26056 52 108 178
-0.103199 -0.25848 4.24682 0 78 160
-0.21636 -0.25201 4.26471 64 143 226
-0.0847683 -0.236384 4.22901 4 90 180
-0.120486 -0.231111 4.24251 1 102 194
-0.17626 -0.229357 4.26587 83 182 255
-0.10888 -0.221489 4.24745 79 176 255
-0.233371 -0.182179 4.26142 30 100 180
-0.0144062 -0.171912 4.23916 70 160 242
-0.118572 -0.163913 4.23811 84 188 255
0.0463443 -0.16744 4.26428 57 93 147
-0.0273223 -0.160165 4.26298 54 138 215
-0.0647804 -0.159224 4.27803 71 160 243
-0.185511 -0.152881 4.23265 12 108 200
-2.12712 0.182078 4.5176 59 52 22
0.158339 0.291893 4.74342 170 160 187
-2.21055 0.217849 4.48458 168 166 138
-2.28946 0.661791 4.4044 6 6 17
-2.30228 0.706188 4.41172 161 176 188
-0.992128 0.883446 4.77002 185 190 212
-1.00225 0.883404 4.76586 117 112 138
-2.22503 0.807627 4.31392 44 43 17
-1.04463 0.993092 4.60883 172 166 194
-1.07415 1.01821 4.61669 194 184 220
-0.883486 1.29066 4.82546 205 208 247
-1.97643 1.52771 4.46662 224 216 162
-0.0536302 -0.44174 4.2854 0 84 173
-0.106888 -0.430239 4.27595 45 95 168
-0.101126 -0.417095 4.27418 112 168 240
-0.104146 -0.414132 4.27733 174 224 254
-0.172509 -0.357338 4.27042 68 98 158
0.0405856 -0.338498 4.25922 58 146 229
0.0697527 -0.326674 4.26169 180 219 255
0.0473256 -0.30497 4.25876 12 105 184
-0.148445 -0.301597 4.25831 8 96 186
-0.145837 -0.278055 4.25811 58 151 245
-0.204018 -0.274306 4.26787 66 156 244
-0.116297 -0.269922 4.25526 38 106 185
-0.103093 -0.266677 4.25566 127 182 255
0.0474325 -0.259256 4.25044 53 134 216
-0.0861748 -0.254297 4.24582 9 89 176
-0.214798 -0.253211 4.28192 61 143 228
0.0608863 -0.208953 4.2605 104 156 224
-0.203174 -0.185648 4.26489 2 110 197
-0.196305 -0.173416 4.24107 1 102 187
-0.161808 -0.162542 4.24979 78 184 255
-0.17602 -0.159095 4.25601 64 170 254
-0.184354 -0.157361 4.25344 12 110 202
-2.13525 0.185682 4.48371 51 46 28
-2.0741 0.78787 4.28871 96 109 126
-2.223 0.801346 4.31308 24 21 10
-1.04607 0.995909 4.6105 173 168 196
-1.07559 1.01944 4.61192 184 174 210
-1.08581 1.02294 4.60236 144 135 172
-1.1023 1.04573 4.61641 232 233 254
-0.0957409 1.36518 5.01409 198 202 246
-0.0315661 -0.453414 4.26747 34 125 209
-0.0598232 -0.445599 4.29314 10 96 184
-0.0371705 -0.412054 4.24462 9 94 184
-0.149647 -0.302336 4.26445 4 92 182
-0.126976 -0.276567 4.25744 130 184 245
-0.175109 -0.267186 4.24435 16 112 206
-0.116238 -0.250089 4.24151 62 162 248
-0.231068 -0.19066 4.25882 38 95 170
-0.212574 -0.178281 4.25471 66 166 246
-0.132882 -0.176858 4.24729 0 100 190
-0.195742 -0.176787 4.26275 6 112 197
-0.121132 -0.169539 4.2271 88 192 255
-0.0546055 -0.152157 4.24279 67 158 241
-0.114901 -0.151353 4.24712 28 127 212
0.158364 0.292955 4.74256 174 164 192
-1.73814 0.510413 4.30176 18 11 5
-0.420955 0.708907 4.83451 210 206 242
-2.29695 0.670715 4.39852 199 214 240
-2.07808 0.746148 4.26111 120 132 152
-2.05495 0.774158 4.26078 138 154 178
-2.08519 0.783378 4.26907 192 212 228
-2.22482 0.805431 4.30556 16 16 4
-2.17393 0.897425 4.30051 150 74 56
-1.10059 1.04361 4.61378 236 237 255
-0.70824 1.41085 5.04121 103 99 131
-0.135208 -0.489419 4.28973 204 206 248
-0.00934807 -0.477904 4.26206 76 118 182
-0.102203 -0.435172 4.27129 39 88 163
-0.0497445 -0.416605 4.27134 4 91 177
-0.0383767 -0.421352 4.29712 4 88 178
-0.188722 -0.418433 4.28829 203 202 246
0.038234 -0.404193 4.26242 4 80 155
0.030305 -0.380427 4.26088 68 162 248
-0.164048 -0.352494 4.25749 51 104 179
0.0494213 -0.352181 4.25663 5 84 170
-0.102392 -0.273097 4.25462 153 187 253
-0.0690776 -0.261998 4.25013 12 84 164
-1.73852 0.511145 4.26542 39 29 16
-0.410706 0.694292 4.81686 200 193 230
-0.393919 0.696216 4.83744 143 122 156
-2.07819 0.74793 4.26347 120 134 152
-2.05409 0.757006 4.25422 156 170 195
-2.06189 0.780548 4.26202 156 174 198
-2.29451 0.86355 4.38638 155 103 60
-1.09336 1.02152 4.61174 156 146 184
-0.13599 -0.487656 4.29038 212 214 254
-0.0330388 -0.454087 4.27518 58 150 234
-0.101512 -0.436275 4.27028 56 97 168
-0.185443 -0.422549 4.2999 207 206 249
-0.127085 -0.281293 4.26109 123 173 225
-0.0708048 -0.263978 4.25093 18 83 162
-1.74882 0.360743 4.17649 112 114 109
-1.73868 0.509846 4.26715 34 26 11
-0.416428 0.6973 4.83016 196 192 229
-2.3036 0.676084 4.40341 202 222 246
-2.06148 0.771592 4.26526 174 192 220
-0.996817 0.88075 4.77923 156 160 184
-2.10993 0.797125 4.28632 87 84 56
-2.24106 0.849191 4.32003 152 94 60
-1.04833 0.999983 4.61143 172 167 196
-1.07112 1.03031 4.60853 205 202 240
-1.77586 1.1736 4.7167 32 16 10
-0.711448 1.41219 5.04792 96 92 126
-0.139153 -0.490491 4.3005 211 212 251
-0.0130273 -0.476901 4.26251 60 107 174
-0.101408 -0.436553 4.27543 68 108 180
0.0261346 -0.145147 4.26119 38 86 146
-2.19583 0.217835 4.4963 193 182 131
-0.430834 0.654006 4.82642 143 126 150
-1.89352 0.594384 4.33572 217 201 128
-0.398441 0.694371 4.8421 160 144 178
-0.46742 0.741099 4.89766 170 167 204
-2.09471 0.735733 4.28485 82 78 51
-2.06088 0.771879 4.26141 186 207 238
-2.03473 0.84242 4.29076 0 0 4
-1.96027 0.877607 4.28908 130 66 36
-1.06893 1.00325 4.62675 150 137 166
-1.09439 1.0219 4.61248 174 166 204
-0.707023 1.40824 5.03915 112 106 136
-0.0146881 -0.476128 4.26409 51 106 176
0.0228115 -0.14521 4.25802 22 84 148
-1.92719 0.553485 4.31358 191 168 85
-0.998634 0.878279 4.80872 152 156 182
-2.04882 0.841214 4.29241 8 8 12
-2.24925 0.85292 4.33455 162 119 76
-1.11173 1.03159 4.64445 179 172 209
-1.77712 1.17023 4.72436 32 16 12
-2.09078 1.41773 4.56142 191 164 60
-0.116398 -0.286823 4.27597 182 223 255
-0.396454 0.688741 4.84009 154 134 168
-0.457694 0.734338 4.8558 168 164 202
0.088485 0.825683 4.68676 138 116 141
-2.10966 0.757017 4.26864 152 146 102
-2.08593 0.770605 4.27709 196 225 250
-0.695463 1.40361 5.03133 114 107 134
-0.196369 -0.308066 4.27058 53 135 224
0.0666024 -0.231097 4.26277 153 196 255
0.043449 -0.215033 4.25698 62 144 220
-0.114775 -0.205513 4.24235 4 100 191
-0.234785 -0.172183 4.24748 93 160 238
-2.14967 0.18358 4.50888 68 60 36
-2.18191 0.184851 4.50755 4 8 22
1.44327 0.351698 5.54319 207 205 250
-2.08267 0.749765 4.27515 164 175 202
-2.2177 0.801851 4.3099 79 71 38
-0.0295489 -0.458272 4.27382 55 148 232
0.0375491 -0.297634 4.25582 58 147 227
-0.103962 -0.256495 4.25348 14 90 171
0.0429859 -0.218681 4.25681 48 131 208
-0.218414 -0.218637 4.26312 28 125 211
0.0442392 -0.151358 4.25449 121 144 196
-0.125746 -0.151879 4.23568 60 162 239
-2.41097 1.36791 4.74799 150 132 62
0.0122435 -0.469988 4.27266 162 194 253
-0.0570153 -0.414697 4.26367 19 100 180
-0.413883 0.691346 4.82879 192 186 224
-2.05797 0.749106 4.25823 120 130 154
-2.07579 0.786251 4.28274 102 116 132
-1.04665 0.997589 4.6139 178 169 198
-1.09177 1.02671 4.61428 150 140 178
-0.153841 -0.232798 4.24524 24 124 216
0.0296227 -0.141861 4.25773 42 76 129
-2.29927 0.668991 4.39894 160 175 202
-2.05744 0.772474 4.2602 156 174 198
-1.04721 0.99735 4.61057 178 170 200
-1.19752 1.04472 4.68599 128 130 155
-1.97637 1.52565 4.46628 232 220 160
-0.139952 -0.378537 4.2479 139 186 236
-0.198023 -0.281105 4.26289 68 162 242
0.0446558 -0.15563 4.26002 104 132 184
0.0280448 -0.144214 4.26022 40 84 143
-0.394501 0.697618 4.84028 145 124 154
-2.09996 0.73625 4.30183 68 62 46
-2.0884 0.758917 4.26473 160 175 196
-1.98803 0.78686 4.28306 10 4 2
-1.93282 1.32526 4.41962 185 158 70
-0.419354 0.695868 4.82747 190 185 222
-2.06249 0.757397 4.26132 178 194 230
-1.98791 0.768898 4.27472 6 2 4
-0.141427 -0.378329 4.2617 112 162 228
0.0417437 -0.355671 4.26432 22 104 188
-2.04728 0.720002 4.25541 56 56 42
-2.02724 0.725761 4.25272 74 68 53
0.0253499 -0.145307 4.25511 40 96 156
-2.20147 0.443601 4.49194 212 192 114
-2.09828 0.734904 4.2966 106 102 62
-2.11357 0.779185 4.27848 96 91 67
-2.11802 0.802293 4.29723 62 60 41
-2.07797 0.840392 4.29799 49 55 52
-0.0492335 -0.149389 4.24596 61 144 225
-2.17527 0.8991 4.30599 153 99 66
-0.192351 -0.301364 4.27743 58 156 244
0.0361339 -0.231518 4.25881 7 89 167
-2.06411 0.750698 4.25883 140 155 180
-2.05436 0.754441 4.25487 150 168 194
-1.06833 1.01004 4.61294 148 136 168
-0.421873 0.706922 4.8362 207 206 242
-2.52691 1.11617 4.7131 163 157 130
-1.77609 1.178 4.72611 38 20 10
-0.369572 0.610238 4.82409 179 171 206
-2.00508 1.51389 4.45227 209 202 154
-1.97054 1.5157 4.44383 230 221 164
-1.94205 0.950538 4.35184 82 4 2
-0.43171 0.652056 4.83302 139 120 146
-1.99206 0.773428 4.27913 4 0 4
-1.77262 1.17901 4.72154 39 21 7
-2.08099 0.785753 4.28109 159 176 203
-0.0253803 -0.355523 4.26069 66 146 228
-1.14329 0.893666 4.72308 148 151 178
0.0303981 -0.140464 4.26095 46 83 133
1.55405 0.668607 5.45646 120 126 152
-0.0375656 -0.404315 4.26673 64 150 236
-0.16497 -0.346412 4.2656 74 158 243
-0.0181478 -0.287086 4.25108 11 100 186
-0.105205 -0.267078 4.25103 121 172 248
0.06283 -0.251169 4.26214 118 170 239
-0.116585 -0.254222 4.24559 76 172 254
-0.0940459 -0.236912 4.24437 70 169 249
-0.014644 -0.225816 4.23501 7 93 174
-0.220744 -0.226703 4.25021 71 157 243
-0.161984 -0.371234 4.26436 54 116 188
0.0447542 -0.243383 4.25316 52 130 208
0.0403048 -0.174775 4.23104 32 81 148
-0.666705 -0.276937 4.70635 35 128 220
-0.0234331 -0.172534 4.29151 37 132 217
-0.0985521 -0.157167 4.23214 4 108 194
-0.697723 -0.275846 4.8558 120 155 222
-0.0967485 -0.140975 4.23395 56 145 238
-0.230609 0.411274 4.8074 170 176 220
-2.2112 0.229456 4.46489 118 116 80
-2.28825 0.670423 4.379 132 148 181
-2.32399 0.744417 4.42189 38 40 24
-2.09185 0.757157 4.27224 178 200 230
0.0915775 1.28043 4.78112 148 160 206
-0.016288 1.42146 4.7626 156 166 208
-1.01364 1.30597 4.93812 142 152 184
0.204451 1.37244 4.08087 164 177 216
-2.46522 1.19959 4.78467 98 70 28
-0.415893 1.56922 4.76674 100 109 152
0.0149605 -0.383126 4.20643 28 118 210
-0.128745 -0.382704 4.27405 180 241 255
0.0320276 -0.331855 4.2618 8 90 174
-0.657102 -0.452547 4.7717 0 76 166
-0.193182 -0.316302 4.22957 80 179 252
0.0629569 -0.302787 4.25098 134 186 254
-0.189656 -0.302546 4.23557 68 167 254
0.0389022 -0.288322 4.26346 9 92 178
0.0649933 -0.284765 4.25199 140 182 250
0.0605165 -0.267625 4.25589 56 113 185
-0.0182079 -0.249533 4.21809 72 166 251
0.0228381 -0.238859 4.2382 66 141 220
0.0148804 -0.218736 4.24398 9 84 162
-0.169651 -0.222131 4.24914 26 130 220
-0.0679778 -0.204003 4.17204 32 124 214
0.0336225 -0.205627 4.23691 1 76 152
-0.150304 -0.216157 4.24185 89 192 254
-0.194733 -0.211611 4.22372 0 94 186
-0.0666752 -0.208666 4.24481 79 174 255
-0.654963 -0.291834 4.62996 59 154 244
0.0457844 -0.193308 4.27165 0 66 140
-0.0983017 -0.15888 4.22729 6 115 200
-0.0805222 -0.155819 4.25575 60 162 254
-0.356736 0.605313 4.81758 134 122 158
-2.31177 0.664364 4.40132 106 122 145
-2.23966 0.845121 4.32482 140 88 48
0.242242 1.24436 4.08399 98 102 131
-1.11739 1.17486 4.90123 96 104 138
-1.01049 1.31025 4.97037 156 165 200
-0.980988 1.31828 4.9243 145 152 190
-0.92869 1.34567 4.9521 134 144 188
0.274224 1.38328 4.03926 190 198 246
-0.83325 1.40894 5.08838 151 152 192
0.38187 1.5217 4.17482 144 154 194
0.293412 1.507 4.16379 168 178 220
0.0374022 1.57173 4.55384 138 112 141
-0.636968 -0.523964 4.77591 38 116 183
0.0623215 -0.324927 4.24039 164 206 255
0.076993 -0.306922 4.28302 135 182 252
0.00567787 -0.300941 4.26974 6 97 184
-0.159648 -0.271232 4.25428 56 156 249
-0.0629965 -0.265113 4.25858 10 78 164
-0.0783488 -0.248059 4.22282 67 156 244
-0.00968132 -0.236895 4.2384 43 134 220
-0.000246374 -0.207995 4.23615 2 82 162
-0.0754264 -0.182437 4.22772 48 143 234
-0.087815 -0.169468 4.23566 108 209 255
-0.1491 -0.163436 4.21887 58 165 250
0.189593 0.211325 4.77367 102 94 114
-2.29905 0.655377 4.43261 1 2 13
-2.31492 0.703646 4.4091 176 195 218
-1.1333 1.15824 4.85773 189 200 229
0.238457 1.24055 4.07853 97 101 130
0.237922 1.26703 4.07366 121 128 168
0.224316 1.30082 4.04787 146 154 204
0.271717 1.37771 4.0256 194 204 250
0.179267 1.38895 4.08241 183 196 237
0.291515 1.50288 4.15955 150 160 202
0.107532 1.62838 4.5014 202 208 244
-0.0171449 -0.477999 4.3039 70 117 190
-0.0430997 -0.368092 4.22858 6 72 152
-0.155654 -0.311787 4.22045 106 165 232
-0.0251046 -0.252219 4.22423 70 162 248
-0.0165719 -0.233582 4.22395 63 156 239
0.016471 -0.180627 4.26897 42 132 218
0.196688 0.211996 4.7984 98 89 109
0.13683 0.293937 4.68281 172 167 198
-2.12326 0.173664 4.48549 52 49 33
-2.32975 0.631093 4.49649 122 128 126
-1.02711 0.868811 4.84869 106 110 134
-1.09455 1.04011 4.66591 171 174 216
0.297373 1.18979 4.26152 126 122 144
0.239357 1.2377 4.07772 102 106 132
-2.45644 1.19127 4.74788 91 66 34
0.107608 1.6148 4.50556 130 102 126
-0.0315926 -0.299452 4.24413 86 174 247
-0.0848264 -0.236521 4.21057 52 149 238
0.00566137 -0.17589 4.24288 60 150 236
-2.32361 0.622276 4.48637 140 140 125
-1.00642 0.889963 4.80674 108 108 136
0.233561 1.23768 4.07061 98 102 130
0.036785 1.57067 4.53733 124 99 122
-0.086398 -0.191638 4.26771 0 94 186
0.178149 0.214614 4.75328 97 88 109
0.238218 1.23891 4.09355 99 102 129
0.256642 1.24016 4.08264 132 134 164
0.289215 1.38944 4.0751 188 197 244
0.0269704 1.56196 4.51935 135 107 135
0.138683 -0.167514 4.26315 142 145 180
-0.0116237 1.32686 4.7049 108 112 151
0.232205 1.26174 4.06843 121 128 166
-0.657373 1.37179 5.08833 100 98 128
0.0838199 1.60126 4.47543 128 94 111
0.117194 1.64459 4.56489 202 216 252
-1.72775 0.302285 4.38753 117 100 61
-2.0948 0.424196 4.63773 122 128 136
-2.29793 0.677689 4.33388 196 232 254
0.396781 1.23279 4.67465 78 75 90
0.244276 1.26273 4.02453 170 178 226
