ply
format ascii 1.0
element vertex 857
property float x
property float y
property float z
property uchar red
property uchar green
property uchar blue
end_header
-0.317882 -0.263961 0.369491 0 255 0
-0.272228 -0.259509 0.366082 0 255 0
-0.256506 -0.258954 0.367875 0 255 0
-0.217682 -0.255131 0.36285 0 255 0
-0.175353 -0.252878 0.367622 0 255 0
-0.175964 -0.252667 0.362161 0 255 0
-0.289451 -0.261207 0.362355 0 255 0
-0.359119 -0.26963 0.381007 0 255 0
-0.379892 -0.274197 0.391716 0 255 0
-0.417832 -0.291319 0.423358 0 255 0
-0.383659 -0.280621 0.416154 0 255 0
-0.347818 -0.277876 0.418547 0 255 0
-0.326863 -0.276335 0.420546 0 255 0
-0.276701 -0.271273 0.4243 0 255 0
-0.270894 -0.271895 0.417456 0 255 0
-0.179718 -0.252359 0.374471 0 255 0
-0.181346 -0.251204 0.369338 0 255 0
-0.25825 -0.208681 0.353674 0 255 0
-0.305304 -0.179174 0.660864 48 28 2
-0.234889 -0.193542 0.654907 202 198 238
-0.180671 -0.286016 0.607758 137 134 168
-0.302374 -0.179468 0.663384 85 74 58
-0.237146 -0.154376 0.630317 119 124 162
-0.305794 -0.175496 0.658569 47 30 18
-0.322074 -0.204685 0.637517 132 74 40
-0.304868 -0.206076 0.663832 102 84 58
-0.276263 -0.187582 0.644192 120 120 138
-0.336368 -0.207783 0.643195 152 116 62
-0.333298 -0.204839 0.640621 178 126 88
-0.204531 -0.265134 0.606649 179 218 255
-0.254925 -0.191908 0.652062 109 106 127
-0.268583 -0.190663 0.637936 158 150 176
-0.274851 -0.184262 0.642971 106 102 122
-0.314357 -0.217216 0.640566 140 112 39
-0.320081 -0.242531 0.658714 44 42 48
-0.264348 -0.17885 0.63876 183 192 229
-0.3434 -0.184281 0.670926 111 72 3
-0.234395 -0.17217 0.6596 102 86 108
-0.23727 -0.200501 0.669558 107 112 136
-0.325804 -0.242792 0.654545 43 47 50
-0.326826 -0.167235 0.643391 176 172 139
-0.205606 -0.255371 0.605505 134 169 230
-0.261778 -0.195921 0.648682 116 119 146
-0.195724 -0.226202 0.628614 112 96 118
-0.336481 -0.172554 0.660584 192 186 144
-0.207176 -0.270992 0.608796 144 157 206
-0.208864 -0.174595 0.62775 196 198 234
-0.219039 -0.225726 0.65365 176 176 216
-0.222535 -0.254224 0.611292 143 160 209
-0.301344 -0.192692 0.659672 104 93 75
-0.194125 -0.191265 0.620092 166 153 180
-0.231128 -0.238871 0.621395 191 194 236
-0.335654 -0.210743 0.643146 4 6 10
-0.20769 -0.251419 0.605877 70 87 132
-0.322453 -0.211143 0.637328 170 162 104
-0.222704 -0.207649 0.639817 158 142 170
-0.324698 -0.206437 0.637178 167 154 93
-0.210161 -0.263741 0.608289 52 100 176
-0.338867 -0.214646 0.653275 82 88 108
-0.320513 -0.177441 0.63916 134 102 20
-0.193456 -0.275874 0.606079 156 150 183
-0.320297 -0.199554 0.639672 126 86 42
-0.320308 -0.202745 0.637554 130 87 46
-0.275433 -0.193979 0.643769 89 93 120
-0.209645 -0.175062 0.586685 128 122 144
-0.200274 -0.251233 0.605688 153 147 177
-0.209125 -0.15126 0.597723 141 147 186
-0.258799 -0.166282 0.651147 170 172 206
-0.328626 -0.213795 0.638516 110 105 72
-0.315666 -0.218783 0.638193 173 146 72
-0.319549 -0.193146 0.645724 138 106 32
-0.202552 -0.158389 0.584203 108 110 136
-0.244 -0.18814 0.664086 128 128 152
-0.172129 -0.286368 0.610543 102 102 118
-0.228931 -0.214965 0.645085 170 166 206
-0.200489 -0.221562 0.630001 180 166 206
-0.300911 -0.217389 0.643103 147 116 48
-0.250196 -0.160092 0.657948 173 174 213
-0.297333 -0.217352 0.644512 110 98 72
-0.325919 -0.214594 0.637408 156 149 104
-0.275868 -0.192863 0.64369 119 122 150
-0.327461 -0.205982 0.637847 187 169 98
-0.175262 -0.288551 0.610462 102 104 124
-0.205425 -0.192242 0.621801 153 136 164
-0.205189 -0.155227 0.589723 101 102 127
-0.333653 -0.189762 0.657092 221 198 97
-0.337583 -0.174999 0.662932 216 204 118
-0.20064 -0.171931 0.616089 185 176 215
-0.323616 -0.228194 0.655 123 95 34
-0.182228 -0.267707 0.605579 118 108 124
-0.329165 -0.207364 0.640124 154 140 90
-0.205277 -0.190886 0.626069 165 148 182
-0.198157 -0.174699 0.616358 184 174 210
-0.336482 -0.211087 0.643065 112 106 62
-0.235381 -0.19986 0.648937 178 174 214
-0.146165 -0.133833 0.593167 100 106 137
-0.322552 -0.243069 0.655181 74 67 48
-0.246483 -0.160654 0.654552 120 120 158
-0.222455 -0.193225 0.636987 220 218 254
-0.192922 -0.222067 0.626865 121 107 123
-0.232038 -0.198682 0.643558 185 185 226
-0.227145 -0.200549 0.641521 166 150 186
-0.235244 -0.191203 0.651402 190 186 229
-0.307527 -0.183257 0.655079 36 20 4
-0.322115 -0.250879 0.657683 102 106 124
-0.326689 -0.211049 0.637155 61 70 84
-0.266935 -0.195636 0.647317 124 128 152
-0.213468 -0.268034 0.610703 82 118 186
-0.220541 -0.199198 0.636983 210 204 246
-0.228131 -0.181901 0.637068 212 218 250
-0.329765 -0.20992 0.639277 110 106 71
-0.237749 -0.162568 0.65824 91 82 106
-0.229725 -0.203922 0.640102 146 134 162
-0.242763 -0.160773 0.656913 108 98 124
-0.209086 -0.225907 0.630655 146 137 168
-0.310304 -0.230407 0.630263 118 118 79
-0.13177 -0.27068 0.672768 99 92 100
-0.18261 -0.288452 0.612458 130 132 160
-0.240542 -0.161185 0.658949 96 86 111
-0.310651 -0.225884 0.633626 156 147 88
-0.194136 -0.192548 0.619513 156 145 170
-0.238289 -0.162038 0.658226 84 74 98
-0.226366 -0.21077 0.639329 172 159 188
-0.135768 -0.258132 0.665864 93 78 90
-0.221556 -0.164833 0.645423 180 188 228
-0.170938 -0.281201 0.609627 105 106 124
-0.211466 -0.16404 0.622836 122 127 169
-0.33842 -0.212475 0.652167 87 82 55
-0.179519 -0.288722 0.611056 120 124 144
-0.329967 -0.22727 0.659128 170 155 118
-0.206622 -0.163923 0.634609 155 148 192
-0.215737 -0.156156 0.622021 154 163 206
-0.328431 -0.240446 0.658603 89 94 88
-0.219561 -0.221723 0.652461 160 148 190
-0.216825 -0.153881 0.614499 160 170 212
-0.0404138 -0.347291 0.837868 102 105 122
-0.264814 -0.171529 0.648605 137 142 170
-0.213162 -0.292295 0.660604 104 112 144
-0.223782 -0.160067 0.655229 127 129 166
-0.302305 -0.236886 0.626056 91 91 96
-0.216759 -0.162599 0.589413 194 202 242
-0.324396 -0.193165 0.647239 192 166 83
-0.328773 -0.170477 0.652822 222 210 140
-0.326109 -0.22819 0.655138 162 142 74
-0.213994 -0.29616 0.667362 128 130 152
-0.320151 -0.237343 0.657156 112 106 110
-0.213239 -0.161712 0.639498 170 175 219
-0.324483 -0.179913 0.641011 208 176 74
-0.218794 -0.203016 0.637551 200 195 235
-0.307554 -0.189568 0.659243 24 2 0
-0.214165 -0.15707 0.648577 148 155 202
-0.319953 -0.191898 0.649894 144 112 39
-0.112402 -0.190144 0.624609 124 128 158
-0.33819 -0.199709 0.651235 190 174 154
-0.271623 -0.196425 0.645161 90 96 119
-0.212256 -0.292402 0.640381 118 121 143
-0.131488 -0.25234 0.676895 110 111 130
-0.307687 -0.167509 0.662388 74 58 44
-0.21781 -0.29404 0.638625 115 118 138
-0.12016 -0.261453 0.67431 97 96 108
-0.336698 -0.215449 0.647754 78 80 63
-0.210826 -0.156983 0.630904 150 154 198
-0.333394 -0.195497 0.649069 196 176 96
-0.212143 -0.15609 0.62646 152 164 206
-0.211226 -0.269968 0.609041 96 128 189
-0.203248 -0.167148 0.628301 212 221 250
-0.225868 -0.180793 0.635058 196 200 239
-0.20677 -0.170913 0.628509 215 224 252
-0.212093 -0.222148 0.641511 210 209 250
-0.33881 -0.206987 0.648568 174 141 80
-0.205715 -0.15335 0.592903 106 108 142
-0.222791 -0.158797 0.665009 106 104 133
-0.211896 -0.290366 0.633087 122 122 150
-0.331695 -0.169785 0.657911 217 211 150
-0.236252 -0.203503 0.651762 156 158 196
-0.21158 -0.167468 0.57967 194 198 240
-0.224939 -0.164625 0.650455 180 188 232
-0.329289 -0.20048 0.637623 173 140 74
-0.234833 -0.241429 0.624757 188 194 236
-0.333251 -0.173352 0.656503 222 206 112
-0.30476 -0.193402 0.657788 124 90 22
-0.176603 -0.283365 0.606633 124 120 144
-0.329016 -0.199682 0.638859 168 136 70
-0.21496 -0.259926 0.609608 112 174 242
-0.336326 -0.217528 0.646953 78 79 54
-0.324309 -0.326615 0.548553 92 92 104
-0.194534 -0.259954 0.605219 145 139 166
-0.180053 -0.172115 0.626916 92 87 101
-0.26973 -0.178669 0.648 115 118 148
-0.205023 -0.246989 0.605562 132 123 144
-0.335784 -0.198922 0.644966 188 166 102
-0.338042 -0.217507 0.650753 66 70 88
-0.183833 -0.166828 0.623933 96 90 106
-0.339925 -0.184898 0.66417 220 200 106
-0.203001 -0.169948 0.580409 94 89 108
-0.234312 -0.208438 0.648769 178 180 222
-0.336241 -0.219446 0.651118 110 108 89
-0.303225 -0.18317 0.67176 86 77 62
-0.339365 -0.20983 0.639022 168 159 110
-0.20461 -0.257847 0.606564 102 142 210
-0.343007 -0.180502 0.668767 186 160 75
-0.336032 -0.173264 0.660149 198 185 93
-0.174458 -0.286528 0.608647 100 101 119
-0.330785 -0.185941 0.654378 224 205 109
-0.183242 -0.243891 0.620321 118 107 123
0.212065 0.894122 1.57041 108 114 144
-0.196581 -0.187475 0.61977 162 155 188
-0.238801 -0.189474 0.650729 176 170 208
-0.243242 -0.194982 0.661954 114 117 142
-0.116002 -0.265502 0.687984 94 94 108
-0.122729 -0.244354 0.678512 100 104 128
-0.220417 -0.160908 0.647337 163 170 216
-0.232506 -0.2364 0.627107 161 168 209
-0.240237 -0.19773 0.667964 95 102 124
-0.113169 -0.235629 0.672493 97 80 96
-0.210459 -0.217684 0.630911 203 196 236
-0.241154 -0.244333 0.639058 140 146 178
-0.254645 -0.23821 0.628426 132 142 166
-0.110186 -0.22981 0.668855 128 110 128
-0.308848 -0.19467 0.663952 73 47 26
-0.304237 -0.173734 0.668939 76 62 56
-0.341119 -0.186431 0.66848 132 121 69
-0.339427 -0.209058 0.64813 130 126 111
-0.321537 -0.227729 0.658897 102 90 76
-0.170069 -0.272405 0.621512 102 98 112
-0.217866 -0.167196 0.610231 148 160 206
-0.190682 -0.287908 0.616741 110 114 139
-0.300633 -0.233932 0.650005 120 128 129
-0.2057 -0.167041 0.624532 186 192 239
-0.140293 -0.269589 0.653271 100 100 114
-0.309778 -0.192122 0.666615 70 38 12
-0.309001 -0.233666 0.632596 100 106 118
-0.304476 -0.2208 0.649808 111 80 16
-0.32991 -0.227046 0.658292 163 154 111
-0.32077 -0.247114 0.659463 110 114 140
-0.199389 -0.290202 0.62534 104 110 132
-0.230319 -0.23042 0.636516 148 160 192
-0.180212 -0.263335 0.613088 105 92 109
-0.108373 -0.184981 0.636689 125 127 153
-0.303669 -0.183689 0.667499 86 80 76
-0.274612 -0.195058 0.644987 107 114 142
-0.219426 -0.166713 0.60289 148 160 207
-0.336066 -0.198208 0.648375 154 142 134
-0.215503 -0.197248 0.623167 190 193 237
-0.307671 -0.188796 0.661918 18 0 0
-0.335617 -0.211031 0.645304 120 117 68
-0.272318 -0.195988 0.644485 120 128 156
-0.324188 -0.180765 0.637886 195 169 74
-0.224884 -0.162627 0.64832 134 142 184
-0.209045 -0.168158 0.621064 150 148 196
-0.325708 -0.228605 0.65311 167 145 73
-0.204688 -0.162882 0.582058 146 152 194
-0.306663 -0.185715 0.66334 70 51 21
-0.325202 -0.214308 0.637282 136 134 98
-0.182449 -0.288529 0.611493 124 129 160
-0.217754 -0.155686 0.598601 164 172 212
-0.265976 -0.189815 0.638501 117 100 122
-0.326466 -0.235746 0.651938 198 182 110
-0.215088 -0.153542 0.599175 168 174 221
-0.218273 -0.163366 0.599995 183 196 242
-0.137944 -0.272994 0.670087 116 118 136
-0.0148397 -0.38231 0.83546 98 102 118
-0.308819 -0.223585 0.635902 90 78 45
-0.320937 -0.192197 0.6493 144 116 38
-0.205565 -0.246097 0.605679 130 122 144
-0.188788 -0.244846 0.610691 119 110 129
-0.176587 -0.268167 0.609063 100 90 104
-0.302517 -0.226087 0.645658 142 119 46
-0.228981 -0.200141 0.640138 173 171 210
-0.233414 -0.173078 0.658482 114 100 120
-0.231065 -0.170566 0.64996 130 128 152
-0.217234 -0.214783 0.633318 187 194 234
-0.124524 -0.256064 0.653874 98 98 118
-0.111521 -0.192133 0.637423 180 186 234
-0.235437 -0.167736 0.657567 85 75 99
-0.101768 -0.252913 0.696665 96 98 114
-0.216831 -0.217243 0.638222 191 198 242
-0.32713 -0.16923 0.642857 184 177 138
-0.322563 -0.209269 0.637438 172 164 113
-0.194359 -0.259804 0.605375 148 142 174
-0.145095 -0.260777 0.654331 82 72 84
-0.342889 -0.175216 0.669891 146 132 70
-0.146991 -0.274861 0.667461 76 75 88
-0.206899 -0.172417 0.575329 138 138 164
-0.202714 -0.291964 0.63047 116 120 146
-0.307671 -0.183176 0.656049 20 7 2
-0.19043 -0.241691 0.611866 130 122 142
-0.183935 -0.270032 0.606064 130 118 141
-0.22179 -0.296546 0.670555 115 122 149
-0.219798 -0.296756 0.666414 114 120 147
-0.302452 -0.236623 0.628341 102 112 132
-0.225966 -0.176888 0.637296 202 215 252
-0.264626 -0.171563 0.648511 170 178 210
-0.219515 -0.22218 0.652088 167 167 214
-0.241984 -0.195281 0.66565 92 99 126
-0.137495 -0.272672 0.668426 110 108 124
-0.17915 -0.289325 0.612577 116 120 142
-0.181356 -0.269529 0.606047 117 108 130
-0.180511 -0.282823 0.603625 144 139 172
-0.321857 -0.1672 0.644048 87 59 22
-0.23574 -0.189091 0.650686 188 185 228
-0.109519 -0.186099 0.64093 110 114 134
-0.192913 -0.222156 0.626983 118 103 120
-0.224617 -0.240869 0.616915 182 189 233
-0.319158 -0.182803 0.648193 166 139 62
-0.179412 -0.289287 0.609316 120 124 149
-0.168961 -0.291782 0.613814 113 118 140
-0.245309 -0.372001 0.648964 90 90 104
-0.135842 -0.257659 0.67923 112 116 136
-0.329867 -0.233677 0.657682 149 143 128
-0.271501 -0.188622 0.637038 199 198 230
-0.323092 -0.197128 0.643847 120 86 45
-0.190385 -0.290817 0.615756 113 118 140
-0.177433 -0.283396 0.604146 127 122 145
-0.310906 -0.196236 0.661694 94 75 44
-0.217334 -0.208588 0.620899 189 190 236
-0.297814 -0.221449 0.645859 104 94 84
-0.331932 -0.226115 0.656347 116 112 113
-0.183383 -0.188393 0.633226 116 107 122
-0.19993 -0.168921 0.618541 164 154 194
-0.209291 -0.209187 0.631892 185 188 228
-0.212399 -0.168494 0.579901 189 192 240
-0.1624 -0.26131 0.645277 98 95 112
-0.172255 -0.192823 0.651734 92 96 112
-0.320495 -0.194466 0.640777 154 126 46
-0.322177 -0.211137 0.635238 164 155 102
-0.310676 -0.174451 0.641422 112 84 26
-0.203157 -0.226252 0.628875 126 116 148
-0.343224 -0.18093 0.669652 187 158 68
-0.242223 -0.197191 0.660693 100 108 133
-0.307813 -0.208406 0.657505 88 58 4
-0.132457 -0.142334 0.65215 78 75 90
-0.33664 -0.217813 0.645866 110 124 152
-0.330983 -0.172346 0.651761 215 208 145
-0.222878 -0.27579 0.622761 172 179 225
-0.193854 -0.293568 0.626144 112 118 140
-0.244039 -0.181013 0.656218 104 84 102
-0.24454 -0.18155 0.656117 102 86 104
-0.186634 -0.287913 0.615328 127 132 166
-0.309163 -0.180629 0.65593 108 82 24
-0.296319 -0.167435 0.660069 78 73 84
-0.220717 -0.217364 0.651442 160 156 196
-0.211927 -0.173334 0.632225 194 200 246
-0.329183 -0.201309 0.639467 170 138 75
-0.300653 -0.18155 0.665146 66 60 66
-0.334678 -0.196678 0.648468 173 163 121
-0.335878 -0.220076 0.651377 124 124 109
-0.305015 -0.192867 0.656354 118 90 30
-0.333212 -0.187758 0.657225 209 192 101
-0.327462 -0.24186 0.656944 28 34 44
-0.228085 -0.212238 0.630524 152 141 173
-0.316136 -0.22682 0.650226 114 110 93
-0.309344 -0.199752 0.660252 97 68 28
-0.235328 -0.20537 0.642038 186 191 234
-0.235568 -0.191486 0.651324 188 188 232
-0.246422 -0.185073 0.661813 79 76 90
-0.335904 -0.221519 0.653058 86 84 93
-0.318724 -0.221594 0.643673 162 138 64
-0.25693 -0.191644 0.643322 122 110 134
-0.268871 -0.179306 0.641715 112 114 140
-0.11111 -0.219484 0.670439 115 114 139
-0.189025 -0.161342 0.621502 88 86 105
-0.258608 -0.166415 0.650173 159 162 202
-0.215072 -0.259094 0.610165 44 106 181
-0.193705 -0.195144 0.621133 126 111 131
-0.307285 -0.223477 0.635765 86 76 52
-0.303194 -0.182828 0.666004 78 71 64
-0.223138 -0.19141 0.634973 208 211 252
-0.319225 -0.182709 0.647514 168 140 63
-0.342788 -0.182034 0.667485 174 144 49
-0.316172 -0.225626 0.638809 150 132 70
-0.211804 -0.196912 0.617863 190 196 240
-0.118505 -0.243957 0.672478 88 74 92
-0.233286 -0.172286 0.659958 100 88 110
-0.200864 -0.221437 0.627224 175 170 211
-0.187618 -0.288277 0.614851 122 128 164
-0.230584 -0.206295 0.63868 158 154 190
-0.130355 -0.25363 0.672448 75 61 78
-0.320864 -0.174743 0.636849 184 164 90
-0.10494 -0.207419 0.641187 152 148 186
-0.303455 -0.234087 0.646763 134 133 137
-0.113338 -0.204678 0.642122 189 190 239
-0.324274 -0.249238 0.658159 83 90 108
-0.192064 -0.288475 0.619435 102 106 129
-0.264575 -0.187386 0.635301 152 146 175
-0.126519 -0.265664 0.670715 88 86 102
-0.318624 -0.183451 0.648201 144 115 41
-0.119198 -0.265654 0.664116 121 128 154
-0.192559 -0.277977 0.60599 149 146 181
-0.225673 -0.246305 0.614474 182 188 232
-0.220018 -0.243715 0.608863 178 179 224
-0.308474 -0.341125 0.570822 68 68 78
-0.240971 -0.279591 0.422194 88 91 106
-0.173406 -0.283362 0.612603 120 113 130
-0.0992613 -0.187758 0.637806 108 122 152
-0.0894762 -0.234044 0.695837 116 116 135
-0.31495 -0.218242 0.637737 155 128 62
-0.327243 -0.184925 0.646275 220 204 118
-0.252294 -0.163141 0.65172 152 154 195
-0.191644 -0.285444 0.620893 122 118 150
-0.213096 -0.247871 0.605285 145 142 179
-0.226531 -0.296817 0.885493 116 124 147
-0.235253 -0.368799 0.68259 91 93 108
-0.220016 -0.160452 0.648957 158 168 218
-0.309945 -0.19813 0.655115 92 74 44
0.0139833 -0.365778 0.936084 104 109 129
-0.242001 -0.193515 0.669755 110 115 144
-0.302723 -0.235976 0.632774 126 135 157
-0.301797 -0.216521 0.646414 136 106 43
-0.304498 -0.226116 0.636375 110 96 78
-0.23987 -0.181103 0.65642 122 102 124
-0.118304 -0.262351 0.677869 99 102 122
-0.335155 -0.221405 0.650682 100 96 86
-0.220797 -0.194755 0.630096 202 202 244
-0.316872 -0.182371 0.6474 152 122 48
-0.119343 -0.26678 0.672685 115 124 149
-0.126304 -0.267321 0.67478 108 108 125
-0.323196 -0.254631 0.661798 119 126 150
-0.336927 -0.217415 0.651554 57 60 68
-0.330832 -0.194544 0.648557 196 180 109
-0.304652 -0.173006 0.670715 72 59 54
-0.13334 -0.142227 0.632615 73 72 90
-0.306199 -0.172551 0.66705 52 36 6
-0.197344 -0.274333 0.44213 102 104 123
-0.133568 -0.254942 0.678791 106 112 134
-0.320735 -0.177672 0.639178 138 105 26
-0.264312 -0.187926 0.634728 142 135 162
-0.115921 -0.197489 0.649126 124 137 172
-0.107336 -0.196841 0.631476 163 164 208
-0.325918 -0.24644 0.658245 56 62 80
-0.323557 -0.179713 0.646208 201 174 82
-0.215767 -0.198038 0.621932 194 202 242
-0.338652 -0.2095 0.647008 156 158 128
-0.109942 -0.187961 0.63409 131 135 175
-0.258843 -0.195562 0.647411 103 108 132
-0.236741 -0.239093 0.627978 142 157 190
-0.275358 -0.187401 0.639415 80 80 97
-0.255469 -0.192902 0.649014 100 98 120
-0.208862 -0.193145 0.62149 194 198 239
-0.322385 -0.197658 0.642067 128 86 48
-0.306849 -0.169466 0.664316 66 55 42
-0.323831 -0.192398 0.649661 186 162 84
-0.24613 -0.164927 0.651819 147 142 174
-0.227762 -0.229328 0.635025 136 146 176
-0.260575 -0.192639 0.641575 144 133 157
-0.253251 -0.164699 0.648327 158 158 193
-0.159601 -0.259899 0.666101 110 112 133
-0.24468 -0.182062 0.65473 82 62 78
-0.33528 -0.189051 0.661017 215 196 110
-0.149623 -0.137768 0.586159 102 112 144
-0.0162491 -0.145626 0.796922 108 118 144
-0.275987 -0.19002 0.640845 101 108 134
-0.327804 -0.241709 0.657907 68 72 90
-0.163909 -0.258039 0.654237 108 106 124
-0.206249 -0.164194 0.580233 153 160 198
-0.20655 -0.188311 0.625319 183 178 220
-0.32217 -0.192663 0.648676 160 131 55
-0.112581 -0.225871 0.673194 114 119 143
-0.190554 -0.196119 0.624697 130 118 136
-0.140708 -0.303589 0.580804 102 107 126
-0.210883 -0.290791 0.635582 120 126 158
-0.102059 -0.24892 0.608416 122 136 164
-0.326677 -0.253622 0.652503 120 130 156
-0.182859 -0.291642 0.611534 109 116 137
-0.132041 -0.141837 0.653272 76 75 90
-0.109507 -0.198474 0.646372 178 186 234
-0.215742 -0.213965 0.633931 206 210 252
-0.259897 -0.168084 0.649414 162 171 210
-0.115065 -0.254334 0.669427 108 114 132
-0.107091 -0.18807 0.626951 116 116 138
-0.31061 -0.232669 0.63591 62 61 61
-0.153064 -0.275817 0.670451 91 94 110
-0.172537 -0.1822 0.646716 84 83 96
-0.225422 -0.185434 0.630586 203 215 253
-0.198369 -0.176462 0.610842 190 186 226
-0.200625 -0.171838 0.605045 138 129 156
-0.113654 -0.257914 0.680558 100 98 118
-0.320301 -0.173787 0.640382 120 88 21
-0.336677 -0.198412 0.648908 110 106 106
-0.164173 -0.238492 0.671845 112 116 134
-0.172497 -0.177908 0.645163 82 80 94
-0.208522 -0.177775 0.5803 113 109 132
-0.338355 -0.216286 0.653227 169 174 195
-0.159558 -0.217762 0.685428 120 126 150
-0.201019 -0.199284 0.62027 112 92 110
-0.0985585 -0.235645 0.679814 109 112 127
-0.200349 -0.171498 0.599903 108 100 118
-0.193768 -0.16209 0.609578 100 100 121
-0.207799 -0.212965 0.627833 195 199 240
-0.234331 -0.266737 0.634354 145 154 192
-0.194763 -0.257759 0.604582 132 124 153
-0.173588 -0.138534 0.723116 62 61 75
-0.326227 -0.19802 0.631659 142 138 118
-0.0999202 -0.181916 0.649969 98 98 117
-0.174525 -0.213009 0.685623 112 125 154
-0.167698 -0.188262 0.718872 103 110 130
-0.299641 -0.202337 0.643349 73 57 26
-0.233096 -0.213725 0.642818 102 110 132
-0.104247 -0.212039 0.659355 138 130 158
-0.324214 -0.20303 0.626018 102 100 97
-0.291187 -0.222604 0.631947 108 96 76
-0.302761 -0.178955 0.659207 60 40 14
-0.223941 -0.224944 0.659955 150 155 192
-0.186551 -0.113379 0.787037 68 65 82
-0.309091 -0.235351 0.636954 112 108 112
-0.301716 -0.226818 0.643991 156 143 90
-0.172409 -0.270495 0.612658 101 97 112
-0.241507 -0.196253 0.667394 118 124 158
-0.322559 -0.217777 0.624042 108 106 90
-0.175159 -0.225586 0.661402 108 112 136
-0.242547 -0.200837 0.667861 114 121 150
-0.183408 -0.226809 0.657524 106 104 123
-0.309028 -0.222314 0.623784 164 142 74
-0.173114 -0.15686 0.703478 87 85 99
-0.100359 -0.210936 0.652992 125 119 141
-0.339428 -0.215876 0.654224 152 154 153
-0.229622 -0.154371 0.674259 161 165 204
-0.300199 -0.223515 0.633989 85 81 80
-0.102026 -0.180966 0.691957 120 130 162
-0.296375 -0.237313 0.616087 96 100 121
-0.177608 -0.234112 0.642116 106 105 120
-0.182588 -0.217954 0.661604 114 118 138
-0.173384 -0.140859 0.722571 98 96 110
-0.329139 -0.226252 0.647972 103 102 99
-0.301566 -0.226557 0.630588 102 91 66
-0.216208 -0.28469 0.617235 131 138 176
-0.309022 -0.185725 0.615213 214 190 106
-0.215666 -0.117408 0.678455 126 136 174
-0.302819 -0.210544 0.647967 89 60 37
-0.181362 -0.145096 0.696182 26 24 39
-0.174925 -0.0694362 1.70496 128 142 172
-0.236921 -0.165427 0.673792 75 74 100
-0.302878 -0.216328 0.64661 98 90 96
-0.21179 -0.153393 0.666508 177 182 217
-0.273334 -0.178333 0.649838 152 156 184
-0.285069 -0.188435 0.67073 92 100 126
-0.272272 -0.184843 0.63621 103 105 124
-0.276809 -0.184418 0.645176 86 80 93
-0.209889 -0.161702 0.644845 183 186 229
-0.210248 -0.210329 0.619925 184 187 227
-0.207012 -0.1674 0.612004 112 110 130
-0.17599 -0.152464 0.700199 63 60 76
-0.209314 -0.237363 0.591116 128 124 149
-0.280405 -0.191335 0.660365 120 128 153
-0.321222 -0.185413 0.629705 192 176 108
-0.168751 -0.11616 1.13365 90 78 94
-0.112648 -0.208164 0.666932 120 128 162
-0.217368 -0.186384 0.616215 200 204 244
-0.316397 -0.198312 0.62603 200 181 109
-0.252246 -0.160988 0.65688 160 162 206
-0.0992971 -0.366526 0.850283 102 108 127
-0.136514 -0.253293 0.672339 114 124 150
-0.198297 -0.131905 0.691051 100 100 118
-0.164602 -0.269962 0.627033 97 94 106
-0.266006 -0.191281 0.657556 146 146 171
-0.299532 -0.229582 0.627732 107 109 126
-0.241118 -0.179931 0.677118 190 194 236
-0.127142 -0.266944 0.669987 108 107 122
-0.123009 -0.241756 0.66001 112 116 139
-0.278532 -0.187133 0.647066 64 64 82
-0.111841 -0.197738 0.670919 130 144 178
-0.26915 -0.238847 0.562884 87 90 108
-0.208443 -0.182585 0.632707 197 204 243
-0.209589 -0.178437 0.623166 201 208 246
-0.215041 -0.120019 0.705709 92 88 106
-0.234906 -0.201753 0.653139 171 175 215
-0.17642 -0.143525 0.706051 62 60 74
-0.168866 -0.251681 0.650959 98 93 106
-0.114425 -0.230284 0.67409 114 117 144
-0.241141 -0.158058 0.682282 75 66 90
-0.191851 -0.277586 0.606487 155 154 192
-0.239665 -0.245297 0.631429 130 139 170
-0.219769 -0.296396 0.665957 114 121 148
-0.26303 -0.185018 0.635586 147 141 167
-0.0986364 -0.183946 0.644793 110 116 142
-0.145804 -0.134534 0.590852 98 108 140
-0.0919418 -0.42995 1.12814 102 106 124
-0.27992 0.163414 1.01271 112 122 154
-0.309263 -0.194554 0.892971 114 126 151
-0.0488081 -0.424688 0.785359 85 87 101
-0.199386 -0.254633 0.606704 151 153 192
-0.184236 -0.229712 0.639444 108 104 122
-0.326624 -0.171978 0.641699 188 180 144
-0.120839 -0.110066 0.709387 74 72 90
-0.301241 -0.202833 0.640158 94 73 52
-0.208824 -0.124449 0.663437 84 86 107
-0.321585 -0.224883 0.701123 113 103 98
-0.162753 -0.228533 0.643327 108 113 134
-0.214241 -0.212345 0.620873 208 214 252
-0.170789 -0.149271 0.693078 86 84 98
-0.178015 -0.151468 0.69494 69 66 80
-0.203359 -0.156108 0.64527 108 96 116
-0.218056 -0.138536 0.638599 172 180 223
-0.203386 -0.192721 0.653456 110 94 107
-0.2309 -0.138155 0.656006 158 168 214
-0.190808 -0.287059 0.609961 107 113 134
-0.234691 -0.13871 0.669564 156 164 209
-0.287044 -0.222705 0.61187 110 88 53
-0.288962 -0.23558 0.603823 112 113 133
-0.171311 -0.259966 0.59535 88 79 92
-0.26988 -0.188774 0.682922 95 100 124
-0.0918453 -0.180945 0.663884 90 90 110
-0.309397 -0.214385 0.662719 118 98 69
-0.171055 -0.208741 0.652436 72 58 73
-0.268364 -0.152305 0.691723 154 155 192
-0.254934 -0.170118 0.657646 136 128 156
-0.247865 -0.172175 0.683677 116 93 114
-0.1808 -0.155704 0.687898 103 99 114
-0.238722 -0.251245 0.628529 147 154 190
-0.178267 0.128088 0.99774 112 122 156
-0.336258 -0.171668 0.663053 180 174 98
-0.176157 -0.288121 0.61003 99 104 124
-0.287708 -0.00542876 0.74483 115 124 156
-0.228606 -0.239773 0.619358 167 172 217
-0.336136 -0.217159 0.649516 82 86 69
-0.222622 -0.204683 0.642612 160 148 182
-0.0998013 -0.230634 0.672783 108 110 128
-0.338224 -0.173432 0.666819 197 188 112
-0.214739 -0.217214 0.639877 196 200 242
-0.209058 -0.241415 0.607588 132 128 152
-0.214383 -0.16297 0.589297 179 190 238
-0.314845 -0.228353 0.637177 106 105 93
-0.223792 -0.293047 0.672781 114 122 150
-0.265905 -0.171899 0.651608 114 123 155
-0.228358 -0.277286 0.640754 152 168 216
-0.322071 -0.22972 0.649776 114 82 14
-0.317569 -0.222859 0.636093 157 136 62
-0.200881 -0.215139 0.622039 176 174 218
-0.237383 -0.256234 0.645755 96 120 170
-0.120304 -0.26549 0.669592 118 128 152
-0.232988 -0.276319 0.634134 146 168 214
-0.221108 -0.289796 0.640872 137 150 188
-0.326076 -0.253526 0.6547 116 124 150
-0.31005 -0.190625 0.658113 98 70 11
-0.202104 -0.175119 0.595355 102 99 118
-0.210413 -0.267462 0.609358 8 89 168
-0.19434 -0.169134 0.612839 92 89 108
-0.234568 -0.204175 0.667177 98 104 134
-0.203514 -0.170773 0.579192 100 98 116
-0.243551 -0.189048 0.661465 134 130 160
-0.205588 -0.255339 0.605825 91 130 203
-0.218509 -0.203332 0.637676 195 195 239
-0.221725 -0.285876 0.678876 126 136 171
-0.209982 -0.14812 0.622036 174 183 230
-0.269693 -0.178964 0.653109 150 156 188
-0.206917 -0.16707 0.624773 152 164 210
-0.212449 -0.175882 0.582031 100 104 134
-0.205506 -0.172987 0.579638 97 94 115
-0.229213 -0.272856 0.668077 120 131 164
-0.318229 -0.223297 0.640062 150 130 54
-0.270395 -0.19281 0.656858 84 91 118
-0.263364 -0.197401 0.645334 92 97 119
-0.202925 -0.2913 0.632989 106 109 138
-0.271878 -0.195186 0.643279 152 158 192
-0.212523 -0.151087 0.599621 145 156 200
-0.205001 -0.161591 0.57975 98 104 137
-0.21903 -0.167548 0.597825 189 203 248
-0.2372 -0.194877 0.677018 81 88 116
-0.204392 -0.24696 0.606761 134 130 155
-0.215843 -0.152607 0.602916 165 163 200
-0.299511 -0.19224 0.665395 98 92 90
-0.19613 -0.187619 0.620402 156 150 186
-0.230154 -0.235951 0.659936 132 146 178
-0.179111 -0.193834 0.635873 93 89 104
-0.223435 -0.21328 0.647556 142 125 156
-0.310253 -0.230242 0.628373 96 100 64
-0.212858 -0.177444 0.591 130 136 172
-0.221497 -0.19413 0.633395 202 201 246
-0.266569 -0.190953 0.638459 114 98 122
-0.185022 -0.29118 0.613239 108 116 136
-0.201543 -0.288846 0.605593 108 116 137
-0.218941 -0.289023 0.660241 142 152 199
-0.220909 -0.207611 0.643754 156 150 186
-0.205727 -0.267648 0.607163 138 185 251
-0.0835256 -0.188761 0.666498 176 178 222
-0.266853 -0.177917 0.647714 165 180 226
-0.122596 -0.136303 0.647667 65 64 81
-0.180966 -0.236731 0.62309 110 118 146
-0.210105 -0.264258 0.607814 75 136 210
-0.0833306 -0.179302 0.67532 95 106 138
-0.216879 -0.164005 0.584762 167 178 226
-0.214956 -0.219737 0.636822 197 202 245
-0.225097 -0.189866 0.632553 198 204 249
-0.310285 -0.218369 0.638969 105 76 22
-0.310942 -0.196365 0.652439 89 62 16
-0.307909 -0.201482 0.653232 98 68 14
-0.302841 -0.188528 0.650185 70 64 76
-0.182805 -0.253942 0.611299 105 102 121
-0.274905 -0.191787 0.649197 104 107 132
-0.226674 -0.174231 0.636512 178 192 235
-0.165067 -0.267895 0.627024 103 100 120
-0.308371 -0.190343 0.654268 52 29 0
-0.222727 -0.205597 0.641633 165 152 190
-0.220845 -0.223097 0.657172 158 159 206
-0.256328 -0.193375 0.648652 90 90 108
-0.223079 -0.227511 0.65563 130 143 178
-0.169695 -0.282701 0.611846 101 106 126
-0.18384 -0.266466 0.611321 116 108 128
-0.189827 -0.196159 0.626504 120 112 128
-0.234085 -0.222074 0.646733 128 141 178
-0.275666 -0.19467 0.644889 82 85 109
-0.24051 -0.202419 0.654156 150 150 192
-0.141809 -0.148714 0.64652 76 74 88
-0.219046 -0.19945 0.638878 197 196 240
-0.248286 -0.283821 0.52409 107 114 135
-0.284657 -0.117681 0.53163 110 120 152
-0.218382 -0.218778 0.655539 146 143 190
-0.202697 -0.249046 0.607363 148 145 172
-0.210391 -0.292319 0.645077 114 122 148
-0.219389 -0.253123 0.610415 50 110 194
-0.208491 -0.149751 0.631821 116 127 172
-0.18844 -0.188251 0.628115 151 142 174
-0.21048 -0.264233 0.607353 92 154 226
-0.209742 -0.145882 0.614724 152 162 202
-0.173298 -0.193239 0.644279 96 98 114
-0.232969 -0.210987 0.645194 154 161 206
-0.338847 -0.215769 0.648881 59 74 90
-0.218688 -0.147863 0.618588 120 133 178
-0.212781 -0.160053 0.64427 174 188 239
-0.308652 -0.200308 0.651712 102 73 14
-0.336464 -0.19583 0.667516 164 154 112
-0.272 -0.18894 0.657529 85 88 108
-0.180956 -0.279849 0.601487 112 114 140
-0.221339 -0.167709 0.643663 164 179 226
-0.225176 -0.172766 0.639105 174 188 234
-0.274542 -0.188822 0.651309 100 103 124
-0.307095 -0.187929 0.661319 74 52 16
-0.221782 -0.292225 0.677406 118 126 156
-0.186769 -0.170686 0.615907 79 76 92
-0.22124 -0.22534 0.663852 120 136 166
-0.341837 -0.206664 0.649893 118 116 108
-0.19971 -0.168248 0.619066 140 138 182
-0.190359 -0.286971 0.619438 112 118 146
-0.212075 -0.259282 0.608058 47 104 188
-0.339391 -0.213265 0.658387 138 130 108
-0.207926 -0.174994 0.628401 180 190 234
-0.239295 -0.16714 0.652688 92 86 115
-0.207532 -0.152092 0.632722 118 131 180
-0.236969 -0.185965 0.65778 154 147 183
-0.256317 -0.172111 0.645998 132 136 174
-0.23834 -0.15543 0.628681 100 110 152
-0.200243 -0.17238 0.59314 91 89 108
-0.163774 -0.26908 0.627117 114 118 144
-0.169593 -0.23847 0.633614 104 103 126
-0.214102 -0.201209 0.617431 166 174 219
-0.324549 -0.181992 0.632684 186 168 79
-0.231467 -0.232254 0.639349 134 144 182
-0.220858 -0.211609 0.651998 130 116 144
-0.158565 -0.292695 0.635752 106 114 135
-0.251815 -0.18991 0.653387 102 88 106
-0.274681 -0.191609 0.647326 170 186 226
-0.232756 -0.2024 0.658943 152 158 204
-0.198186 -0.157243 0.636304 183 194 245
-0.220988 -0.178399 0.642182 166 174 221
-0.234483 -0.192396 0.675108 176 181 228
-0.0294874 -0.162903 0.698155 118 126 152
-0.202466 -0.16462 0.579866 116 116 143
-0.0664817 -0.187453 0.692383 166 166 208
-0.21211 -0.198205 0.628925 186 193 240
-0.211049 -0.203355 0.63453 153 150 196
-0.301616 -0.235357 0.645331 120 124 139
-0.199041 -0.191974 0.627232 124 108 134
-0.217398 -0.168867 0.590609 164 169 215
-0.216642 -0.222802 0.659403 146 148 198
-0.21699 -0.171426 0.5896 163 170 216
0.0704232 -0.0996406 0.838651 87 86 103
-0.210477 -0.159193 0.639722 112 120 161
-0.164819 -0.295994 0.670055 108 114 140
-0.206008 -0.294093 0.632521 110 116 140
1.34768 -1.99393 6.18469 97 100 116
-0.117882 -0.134622 0.665315 79 76 92
-0.231946 -0.202655 0.673059 99 105 134
-0.296749 -0.217218 0.646131 98 94 94
-0.0857408 -0.208842 0.68575 121 108 138
-0.214955 -0.266336 0.610541 98 162 234
-0.183409 -0.291494 0.621357 108 115 141
-0.128048 -0.141066 0.667392 77 74 90
-0.300861 -0.186849 0.662434 65 60 70
-0.207909 -0.163703 0.628573 100 110 155
-0.272051 -0.189018 0.637195 168 173 218
-0.184029 -0.224179 0.641161 112 109 130
-0.206495 -0.156611 0.590042 112 122 160
-0.224033 -0.220776 0.65096 168 165 211
-0.0854748 -0.228326 0.685354 104 106 128
-0.216773 -0.2481 0.615698 163 168 215
-0.236112 -0.204371 0.653518 148 146 186
-0.321606 -0.226573 0.66255 100 80 46
-0.163968 -0.281824 0.616433 100 104 126
-0.212213 -0.155028 0.591698 115 127 166
-0.319801 -0.226729 0.648069 96 76 36
-0.207778 -0.226123 0.631551 130 128 164
0.267659 -0.438234 1.25834 100 105 125
-0.311388 -0.338182 0.639838 94 96 111
-0.188233 -0.295422 0.63793 106 114 136
-0.235415 -0.169163 0.659294 84 74 98
-0.155734 -0.306622 0.741932 108 113 138
-0.320086 -0.201559 0.637724 108 77 39
-0.320035 -0.200924 0.638411 115 80 43
-0.266639 -0.194756 0.651417 105 108 133
-0.088911 -0.363749 0.725966 92 96 114
-0.107089 -0.160855 0.660028 79 78 92
-0.280477 -0.376632 1.35024 110 114 136
0.0507806 -0.426649 1.01373 94 98 116
-0.2994 -0.230051 0.645761 102 98 98
-0.302532 -0.190546 0.652412 80 66 54
-0.214003 -0.157551 0.623458 144 157 202
-0.323258 -0.225404 0.66612 90 74 56
-0.184033 -0.264737 0.595036 97 90 106
-0.185425 -0.273501 0.58549 96 91 107
-0.341256 -0.153256 0.697015 202 194 146
-0.207261 -0.147548 0.604105 135 144 190
-0.191758 -0.162907 0.612502 80 77 95
-0.317098 -0.212744 0.656816 130 104 42
-0.34862 -0.196229 0.682928 194 170 120
-0.199201 -0.286209 0.593993 108 116 139
-0.192014 -0.160291 0.62434 106 102 122
-0.341047 -0.165803 0.680287 182 171 90
-0.21023 -0.288794 0.602348 110 114 142
0.0147614 -0.357648 0.988236 102 108 128
-0.126721 -0.39942 0.84905 95 98 115
-0.164403 -0.345251 0.79837 102 106 126
-0.303354 -0.234195 0.649993 120 120 131
-0.18797 -0.323399 0.587544 96 98 116
-0.319875 -0.231904 0.63912 123 120 107
-0.300213 -0.213156 0.641464 96 69 44
-0.330189 -0.23487 0.631198 92 93 112
-0.221555 -0.154058 0.663453 170 182 226
-0.235672 -0.26649 0.656179 169 180 226
-0.295844 -0.199396 0.634998 65 38 6
-0.196881 -0.198051 0.624862 105 83 96
-0.29283 -0.218244 0.636083 106 94 60
-0.152249 -0.190595 0.693755 96 102 126
-0.313164 -0.192924 0.6236 209 192 114
-0.232128 -0.149559 0.661013 152 164 208
-0.294145 -0.222308 0.627978 100 79 43
-0.228037 -0.127076 0.662419 172 186 228
-0.297029 -0.202979 0.627524 98 70 8
-0.257853 -0.0409739 0.64117 102 111 142
-0.297716 -0.196702 0.639531 61 25 0
-0.294165 -0.197694 0.631494 50 18 2
-0.239685 -0.178786 0.670578 171 174 216
-0.322559 -0.210042 0.638619 175 168 108
-0.237228 -0.197357 0.662928 164 167 210
-0.33173 -0.234606 0.707121 117 124 150
-0.227018 -0.143631 0.637066 162 171 216
-0.227979 -0.207585 0.681349 151 138 174
-0.228758 -0.178361 0.627737 70 68 86
-0.224279 -0.267794 0.663202 76 118 190
-0.205121 -0.173824 0.591592 107 102 120
-0.300952 -0.220921 0.638456 88 78 70
-0.194734 -0.200348 0.650417 94 76 87
-0.101031 -0.223282 0.644824 105 112 128
-0.215945 -0.203108 0.659842 179 182 226
-0.27022 -0.278733 0.635354 110 116 134
-0.217925 -0.13169 0.658014 152 160 200
-0.327132 -0.250117 0.656182 114 118 138
-0.137897 -0.274601 0.672609 104 104 119
