ply
format ascii 1.0
element vertex 1304
property float x
property float y
property float z
property uchar red
property uchar green
property uchar blue
end_header
-1.47789 -0.0447792 1.65315 138 69 30
-1.37884 -0.0414312 2.43093 158 110 86
0.637441 -0.0291044 2.72795 119 106 83
1.00352 -0.020247 2.24963 134 90 65
0.640752 -0.0204313 2.59133 140 112 92
-0.0877021 -0.0194865 1.89352 113 88 65
-1.43026 -0.016204 1.75107 153 124 83
0.711986 0.0088045 2.37063 163 128 118
0.993345 0.00786652 2.12581 158 118 99
0.657235 0.00965224 2.4051 156 103 80
0.116824 0.0064592 2.06976 154 114 92
0.639936 0.0255285 2.52276 128 103 88
0.64503 0.0313211 2.3922 150 89 74
1.1039 0.0356921 2.23143 118 78 58
-1.45057 0.01251 1.77315 158 134 104
1.29575 0.0392473 2.14444 136 108 90
-1.50316 0.0173584 1.64207 108 8 10
0.974238 0.0456617 2.10792 142 94 69
1.01065 0.0506781 2.11526 120 79 59
1.49884 0.0562884 2.35044 139 111 92
1.46301 0.0602024 2.33059 145 124 110
0.664586 0.0582034 2.36967 170 64 54
0.698731 0.0621233 2.37511 158 101 94
-0.0686939 0.0465055 1.91591 112 63 47
0.884611 0.0623501 2.21931 134 87 62
1.06445 0.0766833 2.12389 154 108 86
1.36011 0.089802 2.30283 194 176 170
0.693697 0.0888445 2.37839 153 98 98
0.641607 0.097473 2.50267 88 58 44
1.04817 0.0847696 2.1576 120 75 51
1.19832 0.0867709 2.16212 156 130 120
0.743477 0.0943949 2.33066 148 121 115
1.41972 0.0995509 2.29561 152 117 98
0.716974 0.104135 2.35814 117 88 85
-1.52451 0.0635267 1.65303 112 26 30
-0.0783891 0.0881003 1.89582 102 20 12
0.824655 0.108589 2.25107 136 99 86
0.977039 0.10523 2.18044 156 116 101
-0.915808 0.109895 2.50728 104 57 42
-1.54267 0.0761711 1.66468 78 58 58
1.35213 0.124495 2.23118 155 132 122
1.42159 0.128913 2.27533 142 100 77
-0.877196 0.127545 2.55582 81 34 20
0.736416 0.126675 2.3321 116 90 88
0.875914 0.123784 2.24091 164 132 120
-1.67003 0.127445 2.6868 146 120 98
1.19692 0.128533 2.17299 154 126 115
1.30339 0.132485 2.20008 149 111 100
1.03215 0.135937 2.17793 165 137 126
-0.379226 0.146016 2.54139 94 56 28
1.26038 0.141953 2.16768 176 130 108
0.680347 0.16536 2.46879 94 87 73
0.744614 0.154577 2.32449 128 103 100
1.07343 0.149092 2.17622 168 136 124
1.2234 0.14966 2.16876 146 113 98
-1.01311 0.141724 2.31586 116 66 41
-0.78607 0.158788 2.5813 142 88 62
-0.204755 0.124723 1.8514 88 14 7
-0.918438 0.153352 2.4467 86 38 22
-0.584479 0.171895 2.49159 157 104 76
0.733025 0.175488 2.37744 128 114 104
-1.27544 0.159245 2.34875 142 91 75
-0.645319 0.173262 2.50146 133 78 48
1.34771 0.175137 2.25252 38 22 14
-1.08407 0.165748 2.34461 143 94 70
-0.727727 0.175404 2.51535 122 69 38
0.689811 0.187233 2.46984 40 18 9
0.922676 0.189856 2.43842 212 192 184
0.922211 0.17663 2.22028 159 124 109
-0.819499 0.191338 2.53026 148 98 74
1.24039 0.191476 2.20625 70 42 31
1.26639 0.193861 2.18366 108 80 66
-1.57161 0.197503 2.52387 106 75 48
-0.650182 0.21101 2.48354 170 115 87
-0.00716165 0.169419 1.81275 122 26 19
1.02871 0.201292 2.18578 152 137 128
0.87892 0.208045 2.2506 173 132 124
-0.109935 0.16672 1.79994 96 18 12
0.80453 0.217068 2.30638 119 88 82
1.12628 0.208686 2.18248 140 52 44
0.954106 0.224356 2.19464 129 30 20
-0.0587748 0.184977 1.76995 56 37 27
0.251289 0.20812 2.01088 116 100 82
-1.12189 0.227558 2.42013 154 98 74
-0.713489 0.23528 2.46467 128 79 50
1.01123 0.231065 2.17768 120 46 42
-1.49176 0.174244 1.73179 112 22 24
0.879336 0.242071 2.26833 161 128 122
-0.126234 0.193838 1.77542 117 26 20
-0.0969606 0.200157 1.78506 59 44 32
-1.41989 0.243092 2.4228 140 90 62
-0.0243834 0.202249 1.77875 64 49 34
1.21233 0.248347 2.22104 68 50 45
0.217456 0.226396 1.99892 90 72 62
-0.370014 0.227403 2.03676 110 82 70
1.24983 0.260904 2.23483 132 108 90
0.888767 0.263992 2.25701 140 110 106
0.958335 0.261749 2.21661 138 78 64
-1.18274 0.257375 2.34508 116 70 50
0.273299 0.243656 2.03403 145 127 118
1.01061 0.26652 2.1947 130 52 39
-1.50163 0.202815 1.75428 97 42 44
-0.127225 0.228601 1.83349 110 17 14
-0.266163 0.236514 1.89417 146 74 67
0.928337 0.282429 2.24651 56 36 32
-1.52955 0.210162 1.72961 90 50 50
-0.189004 0.233051 1.82762 140 41 38
0.0494961 0.238942 1.83021 133 38 34
-1.14156 0.283391 2.3965 66 28 14
0.2149 0.258789 1.99877 115 98 89
1.19591 0.292361 2.25628 154 127 117
-1.38636 0.28485 2.38678 174 122 94
-0.925243 0.289287 2.40331 113 84 74
-1.45438 0.281355 2.35534 121 85 58
0.129303 0.24994 1.87293 129 66 62
-0.09411 0.252977 1.86741 104 24 18
-0.0227446 0.245686 1.82599 66 34 26
0.968383 0.293214 2.19097 103 80 74
0.0745618 0.255313 1.85865 140 30 34
1.00321 0.303344 2.22684 82 59 55
-1.52316 0.235739 1.75361 90 23 23
0.254952 0.283714 2.04104 114 94 84
-1.42177 0.302361 2.36562 122 76 50
-0.38585 0.28531 2.05737 123 100 92
-0.998885 0.320827 2.43625 124 91 81
-0.223227 0.264154 1.83573 151 44 39
-1.01943 0.316025 2.38002 126 92 80
-0.0899157 0.272919 1.83229 128 22 20
-1.58512 0.249577 1.71475 92 34 40
-0.120738 0.284508 1.84149 108 95 92
-1.53557 0.280761 1.88289 140 86 54
-0.224634 0.295876 1.85861 152 42 38
-0.0468464 0.31134 1.84904 151 44 42
0.0892223 0.312681 1.8826 135 38 40
0.0148785 0.317944 1.83208 74 56 50
-1.63853 0.311398 1.84569 116 31 23
-1.53122 0.319182 1.88499 145 114 78
-0.142777 0.330406 1.84375 150 104 102
-0.0236612 0.339903 1.87532 142 44 42
-0.00324285 0.348309 1.87098 142 48 42
-1.52897 0.349418 1.92019 131 86 70
-1.64499 0.365279 1.88597 112 66 46
-1.5503 0.373682 1.89023 130 52 36
-0.185148 0.395852 1.92967 124 46 42
0.0338218 0.401706 1.9214 120 42 32
-1.59066 0.376741 1.84791 142 46 20
-1.53965 0.397204 1.9467 136 80 67
0.121628 0.422169 1.95084 138 67 58
-0.18761 0.452775 2.04233 200 168 162
-0.151477 0.456967 2.05359 154 134 133
-0.116742 0.471157 2.03088 65 32 32
-1.55008 0.442833 1.9355 116 28 9
-0.0377519 0.487484 2.06581 110 72 73
-0.135362 0.482443 2.04235 95 64 67
-0.200071 0.473577 2.00551 100 69 62
-1.56895 0.454169 1.90575 128 33 16
-0.129978 0.501444 1.99739 78 45 41
-0.0639249 0.509059 2.0267 118 90 88
-0.152573 0.545275 2.07246 140 110 106
1.03347 -1.27502 1.94734 134 104 66
1.12837 -1.2534 1.93201 120 92 56
1.0181 -1.24294 1.92947 106 60 25
1.13794 -1.24196 1.96299 120 80 48
1.03557 -1.22183 1.91647 154 100 72
1.00439 -1.20993 1.91348 122 52 28
1.13266 -1.20189 1.90805 119 98 63
0.664703 -1.17115 2.17797 138 111 84
0.632428 -1.04675 2.00558 120 94 70
0.867426 -0.902703 1.69121 122 32 20
0.639004 -0.929142 1.81154 138 96 68
0.735354 -0.942327 1.85042 113 25 16
0.872725 -0.869664 1.6448 112 58 34
0.660114 -0.915089 1.84107 126 88 68
0.664975 -0.890925 1.87438 158 131 118
0.717342 -0.852289 1.81797 136 102 88
0.629228 -0.904663 2.02144 125 105 88
-0.623041 -0.974872 2.31084 88 52 36
-0.423398 -0.99313 2.40271 121 112 74
0.755625 -0.831304 1.80529 132 90 74
0.666201 -0.856559 1.95048 122 106 95
-1.2982 -0.893616 2.13421 121 112 66
0.639832 -0.889698 2.09031 120 93 72
-1.26765 -0.887361 2.20503 96 82 46
-0.484582 -0.901747 2.31029 50 27 14
-0.686088 -0.804573 2.2971 90 20 4
-0.510667 -0.809917 2.3314 36 10 3
-0.368655 -0.841268 2.49519 122 116 73
0.87298 -0.795187 2.3749 148 123 81
-0.537974 -0.762116 2.37686 50 18 9
1.00138 -0.747354 2.27525 122 109 75
-0.449757 -0.760465 2.3832 44 24 15
0.832627 -0.764214 2.38558 158 138 90
-1.51677 -0.692744 2.13184 80 46 28
-1.29141 -0.676277 2.09171 72 23 10
-0.357183 -0.742554 2.38288 124 119 76
-0.551636 -0.741113 2.39867 82 40 24
-0.495866 -0.733534 2.37797 63 20 14
0.550102 -1.07386 4.17232 124 124 79
-0.675757 -0.719887 2.46463 78 32 11
0.9594 -0.666809 2.23698 132 121 84
-1.4347 -0.614298 2.13397 72 37 26
-1.56302 -0.626211 2.22559 122 110 74
-1.34524 -0.602861 2.15789 82 36 22
-1.32052 -0.584635 2.17637 56 14 2
-1.21878 -0.60252 2.27527 84 45 24
-0.659937 -0.604594 2.35938 161 114 81
0.950868 -0.538304 2.02363 118 65 54
0.997458 -0.531195 1.98534 176 80 56
-1.06316 -0.628107 2.65418 130 112 70
0.993359 -0.542486 2.1872 119 96 80
0.765014 -0.545611 2.32973 120 93 76
-1.55509 -0.519026 2.25082 138 123 91
-0.469499 -0.525678 2.38762 78 38 26
0.994643 -0.465475 2.02714 67 22 12
-0.445633 -0.504619 2.39787 81 40 25
-1.65659 -0.359954 1.41034 94 95 120
-1.69184 -0.340734 1.42992 116 110 106
-0.799291 -0.417849 2.05793 137 94 72
-0.43765 -0.460094 2.3968 54 22 13
-0.9536 -0.402576 2.01898 128 84 49
-0.644616 -0.418482 2.20584 122 79 56
-0.452114 -0.438113 2.42889 65 30 22
-0.732463 -0.404518 2.16693 85 44 24
-0.860742 -0.362952 2.00268 160 111 88
-1.37509 -0.365093 2.25501 90 43 26
-0.616792 -0.367384 2.23266 142 100 82
-1.57154 -0.293992 1.52036 140 106 85
-0.400135 -0.384904 2.51293 130 109 84
1.03934 -0.344559 2.14232 79 54 52
-1.66475 -0.273618 1.46736 104 16 24
-1.63435 -0.273128 1.45952 88 16 28
-0.981443 -0.292901 1.95303 86 34 14
-1.53055 -0.319145 2.2987 148 124 100
0.716916 -0.303825 2.386 100 72 40
-0.48706 -0.288416 2.4816 160 123 107
0.712887 -0.270496 2.45941 50 32 14
1.07292 -0.240434 2.15137 133 100 80
-0.55357 -0.266554 2.49068 168 126 111
-1.66779 -0.196821 1.43228 176 56 58
-1.5337 -0.18366 1.48046 118 38 38
-1.11755 -0.205369 2.07752 100 52 32
-1.56934 -0.17439 1.49909 139 84 86
-1.02925 -0.198758 2.11105 154 104 86
-1.56532 -0.158873 1.44646 130 46 50
-1.5363 -0.15444 1.4692 82 56 54
-1.24506 -0.186102 2.29694 162 115 92
0.800739 -0.15808 2.47951 101 64 44
-1.5858 -0.128619 1.43244 87 14 26
-1.54601 -0.126609 1.4808 115 28 28
-1.49321 -0.122657 1.75405 154 130 99
0.909524 -0.119734 2.23934 114 94 80
-0.767215 -0.124584 2.49574 169 120 98
-0.797775 -0.0913786 2.51485 160 109 86
1.25787 -0.0579606 2.3048 186 166 152
-1.63669 -0.0620097 1.4381 96 17 36
0.98412 -0.0445374 2.31546 106 76 58
-1.75256 -0.049548 1.56523 166 96 84
-0.393074 -0.0375014 2.58661 146 100 80
-1.23339 -0.0375992 2.36684 160 112 92
-1.37766 -0.0316462 1.8094 146 88 61
-1.80774 -0.0289185 1.58202 154 104 84
-1.59969 -0.0256263 1.55918 75 2 4
0.649266 0.0155948 2.72141 105 88 65
-1.04936 0.0357322 2.35207 159 117 104
0.626547 0.0534437 2.52131 96 69 52
-1.5865 0.0198922 1.5656 94 6 7
-0.197237 0.0350449 1.77537 114 40 28
0.648003 0.07226 2.44706 102 37 26
0.640612 0.0768178 2.55236 90 68 49
0.860343 0.0735505 2.2745 162 128 116
-0.147033 0.0540679 1.8177 98 28 18
0.980948 0.0749791 2.15095 110 66 38
-1.71652 0.0367801 1.47895 142 41 16
1.25058 0.09058 2.16355 158 123 108
-0.33342 0.107694 2.61331 132 82 60
-1.58265 0.0539099 1.59141 101 88 92
-0.834608 0.115227 2.56177 126 72 52
-0.197675 0.0960176 1.82226 33 10 4
-0.951763 0.130448 2.41215 122 75 54
-1.67213 0.0801473 1.52646 118 9 12
1.08505 0.137038 2.15179 171 143 134
0.701949 0.150809 2.38875 82 44 44
-1.70845 0.0911758 1.51061 98 10 0
-1.63662 0.10633 1.56638 82 64 67
-1.56502 0.114068 1.64875 102 98 108
-1.53664 0.118532 1.66707 82 64 67
0.970786 0.187159 2.22971 140 126 118
-0.876359 0.198295 2.5479 64 24 15
-0.927547 0.189185 2.40018 106 62 41
-1.60092 0.132581 1.61661 108 104 117
1.44218 0.2169 2.36365 91 72 56
0.658991 0.22238 2.48094 80 42 20
-1.63221 0.134758 1.57772 102 94 100
-1.6384 0.155843 1.58552 82 66 68
-1.56825 0.166505 1.67396 78 64 68
0.00609179 0.191475 1.77433 140 20 21
-1.80093 0.155154 1.54186 151 114 73
-1.46518 0.232211 2.4173 117 74 46
-0.64447 0.239214 2.45391 131 80 52
-1.61777 0.17507 1.62594 104 93 95
-1.59407 0.176474 1.65356 113 102 105
-1.61385 0.197239 1.644 107 40 40
-0.0605173 0.232031 1.80341 72 60 46
-1.49019 0.280792 2.44443 118 82 57
-1.45232 0.279865 2.42408 152 102 80
-0.362707 0.259718 2.04179 104 80 67
-1.56904 0.217671 1.69293 100 45 48
-1.04129 0.315001 2.38863 124 84 68
-1.60361 0.235426 1.67184 72 52 55
-1.64722 0.237723 1.63341 108 39 42
1.27238 0.339878 2.28497 140 112 99
-1.60248 0.247487 1.66994 98 45 52
-1.67973 0.247768 1.61614 88 48 51
-1.64332 0.267923 1.63564 98 34 34
0.0306694 0.32629 1.8411 142 124 118
-1.68137 0.284159 1.63397 88 40 45
-0.203392 0.326475 1.85729 133 50 44
-1.6642 0.326624 1.68259 136 68 27
0.0606953 0.390454 1.92443 90 34 29
-1.71115 0.33957 1.65575 164 96 62
-0.0314412 0.460127 2.10453 146 38 36
-1.50489 0.436382 1.94666 136 80 73
-1.71701 0.430994 1.77558 160 50 38
-1.74993 0.431109 1.78255 152 66 55
-0.245684 0.500234 2.0292 126 96 86
-1.60095 0.468157 1.85945 98 10 9
-0.197383 0.532786 2.05678 130 102 98
-0.17198 0.540697 2.07071 122 94 90
-1.73108 0.469007 1.79993 166 58 40
-1.72227 0.504937 1.81884 146 38 12
-1.67704 0.500561 1.78957 135 33 14
-1.43109 0.552116 1.91963 138 107 94
-1.52607 0.593792 1.82749 137 79 78
-1.63406 0.64154 1.76156 145 74 76
0.624765 -1.00324 1.89697 102 64 32
0.723397 -0.98776 1.93321 112 73 40
0.635864 -0.955834 2.10641 106 92 72
-1.32618 -0.910715 2.18513 130 121 79
0.954588 -0.740448 1.69724 114 94 86
0.964079 -0.719566 1.77848 104 82 72
-1.24516 -0.758026 2.14475 84 36 20
-1.19984 -0.716576 2.11106 156 98 78
-0.724332 -0.768169 2.45926 154 126 86
0.502744 -1.13979 4.30082 139 138 92
-1.29363 -0.653471 2.11727 186 118 98
-1.36511 -0.639974 2.07042 44 25 19
-0.435634 -0.69853 2.35605 62 26 15
-0.48014 -0.629966 2.38092 101 54 38
-1.14836 -0.613199 2.3531 122 91 60
-1.43568 -0.576348 2.1495 76 42 28
0.975671 -0.544167 1.99254 128 26 18
-1.20571 -0.565215 2.27881 98 56 30
0.791099 -0.548639 2.29211 110 66 48
1.24987 -0.497624 2.00558 139 112 76
-1.45738 -0.526658 2.20304 83 42 29
0.817157 -0.513564 2.32266 100 80 65
1.21902 -0.460639 2.02393 146 84 52
0.702988 -0.478872 2.27147 106 75 59
-1.02404 -0.311855 2.06612 98 46 25
-1.39405 -0.303512 2.30581 52 21 12
1.0735 -0.265891 2.06468 138 88 72
1.02924 -0.313094 2.76011 78 73 42
0.726904 -0.260577 2.41478 104 77 56
1.13751 -0.23284 2.17834 88 48 26
-1.42814 -0.248414 2.36379 136 109 88
-1.70006 -0.165914 1.4279 145 54 50
-1.34939 -0.201882 2.3202 154 107 84
0.914852 -0.192477 2.59443 96 68 44
-1.65533 -0.13015 1.41628 116 18 24
0.87956 -0.134242 2.27087 99 80 70
1.03455 -0.10843 2.19097 21 12 8
-1.55136 -0.10562 1.72223 150 112 96
1.04747 -0.104219 2.18376 64 49 43
-1.65114 -0.0836732 1.4023 98 18 30
-1.50969 -0.0817948 1.6877 116 61 20
1.54372 -0.0720448 2.43989 124 90 64
0.711368 0.0326074 2.37759 163 121 108
0.680279 0.0677039 2.86055 106 90 66
-0.231416 0.0460813 1.804 106 25 20
-1.27531 0.0791998 2.38281 148 100 85
-1.5591 0.0560578 1.62278 84 66 71
-1.58456 0.0855013 1.60441 114 108 116
-1.39276 0.170085 2.37377 193 148 127
0.00815367 0.17795 1.84626 100 18 11
-1.51338 0.258768 2.44053 128 97 77
0.842489 0.287126 2.42438 198 174 167
-1.59098 0.234555 1.69282 26 16 33
-0.2575 0.465588 2.122 108 74 67
-0.260162 0.482737 2.09058 121 90 82
-1.68587 0.418651 1.75492 154 62 36
-1.79206 0.473588 1.86878 142 81 66
-1.67186 0.501471 1.80716 132 34 14
0.610107 -1.12211 2.15605 118 96 52
0.641125 -1.08534 2.1048 142 118 92
0.650093 -1.03094 1.92426 133 108 88
0.626804 -1.04126 2.08927 102 74 40
0.61552 -0.998492 2.05142 118 96 74
0.827479 -0.880878 1.69176 126 82 52
0.706878 -1.04872 2.40311 130 106 63
-0.705418 -1.05467 2.51771 133 121 80
0.986372 -0.793247 1.71268 154 134 126
0.93572 -0.77564 1.69514 110 85 74
0.598916 -0.871739 2.09064 104 94 49
-1.49118 -0.843342 2.10295 140 131 88
-0.382419 -0.934118 2.42913 117 112 70
1.01346 -0.750563 1.72019 172 154 150
-1.53296 -0.817776 2.13831 139 129 86
-1.24083 -0.822815 2.15471 98 66 46
-0.366796 -0.897198 2.46299 145 141 95
0.72381 -0.749234 1.90137 125 86 61
0.772188 -0.7263 1.91783 130 94 66
1.10592 -0.690128 1.76527 155 132 122
0.732568 -0.721227 1.90809 148 126 87
0.863869 -0.710512 1.88608 127 87 69
0.873655 -0.728469 1.99751 146 114 94
-0.511098 -0.820112 2.42565 34 8 1
-1.5672 -0.748561 2.16157 127 116 72
-1.48445 -0.719041 2.09798 85 49 30
-1.58434 -0.738042 2.20399 139 131 80
-0.749209 -0.797362 2.44589 153 124 83
-1.49129 -0.670889 2.11979 90 52 34
-0.682326 -0.751948 2.50611 99 67 40
1.3049 -0.684014 2.30829 58 20 9
1.05532 -1.04544 4.14146 146 142 90
-1.20449 -0.676962 2.35192 125 90 58
-1.15302 -0.695854 2.58515 143 129 82
0.995315 -0.606278 2.14969 138 116 101
1.04958 -0.585274 2.03682 128 62 52
0.839931 -0.663655 2.50213 100 48 21
1.1751 -1.00511 4.41425 144 142 92
0.973559 -0.575752 2.03928 141 78 66
0.917485 -0.635849 2.42607 132 106 72
0.748999 -0.593875 2.23874 147 98 70
-0.798701 -0.676281 2.76002 129 100 62
-0.828833 -0.661839 2.80155 120 88 51
-0.3724 -0.619308 2.56145 58 26 14
-0.865099 -0.642835 2.78496 110 92 48
-1.10378 -0.588701 2.45864 130 90 63
1.22702 -0.872399 4.26134 143 141 90
1.44216 -0.586499 2.48097 132 114 92
-1.63166 -0.411642 1.4334 136 130 101
1.3622 -0.544179 2.26262 152 124 84
1.21516 -0.52755 2.17039 102 64 46
-0.384253 -0.555009 2.37757 168 117 97
-0.822297 -0.605283 2.70777 136 92 64
1.34741 -0.529692 2.28379 152 102 66
-0.915298 -0.587773 2.70433 112 94 51
-0.998615 -0.572804 2.62452 118 100 58
-1.05838 -0.521285 2.44038 102 56 31
-0.983973 -0.578837 2.84464 104 86 48
0.961749 -0.523806 2.51486 105 113 77
-0.354123 -0.485767 2.26525 123 100 76
0.922015 -0.494508 2.40353 90 95 56
1.02768 -0.499239 2.47291 134 116 86
0.718298 -0.471874 2.4176 108 76 46
-1.17126 -0.435173 2.23381 115 72 49
0.913757 -0.457063 2.5096 22 10 5
1.07095 -0.619461 3.86155 117 114 74
-1.60231 -0.322137 1.43232 75 70 78
-1.37734 -0.406551 2.21928 65 22 14
-1.67198 -0.314402 1.45176 102 90 92
1.11809 -0.380464 2.05922 115 68 50
-1.14687 -0.400084 2.22872 98 53 31
0.99236 -0.446485 2.73378 137 120 94
-0.518558 -0.404023 2.45862 102 62 49
-1.66898 -0.294309 1.45788 116 104 105
-0.74402 -0.38685 2.48821 120 72 56
1.48234 -0.371548 2.43506 162 134 105
1.04679 -0.390668 2.7392 73 62 40
1.24822 -0.321416 2.11869 132 92 69
-0.613548 -0.339953 2.27436 132 86 69
1.11221 -0.309213 2.06185 115 89 84
-1.53922 -0.263257 1.55406 152 122 101
1.52741 -0.339144 2.57182 120 88 61
-1.43788 -0.321754 2.28677 116 72 54
1.22353 -0.286456 2.07469 130 103 80
1.15915 -0.349455 2.89096 128 108 86
-1.3389 -0.293782 2.22616 80 36 19
0.764584 -0.325709 2.68728 164 138 112
-0.806692 -0.264685 2.10759 100 45 28
1.09186 -0.287925 2.80083 110 91 68
-0.902201 -0.239563 2.0911 64 20 3
-1.45264 -0.248133 2.3001 149 119 96
0.659211 -0.248929 2.45553 58 38 15
-1.73832 -0.181588 1.452 152 79 64
0.874922 -0.213887 2.17071 159 106 82
-1.35308 -0.216604 2.16005 158 124 102
0.936401 -0.230673 2.61013 86 66 38
0.937714 -0.203832 2.14325 156 109 83
1.25963 -0.198204 2.11683 138 122 97
-1.28538 -0.208098 2.27822 162 113 90
0.712956 -0.212867 2.54596 62 48 34
0.858375 -0.203224 2.53694 94 62 40
-1.56132 -0.154811 1.48261 158 144 142
-1.53235 -0.151147 1.50066 122 38 34
0.974163 -0.170414 2.16224 142 112 91
-1.63997 -0.144518 1.42856 105 12 24
0.915471 -0.174101 2.48472 126 100 80
0.839232 -0.157125 2.06742 58 36 26
1.31224 -0.149258 2.19865 65 36 18
-0.707433 -0.163338 2.47613 187 140 116
-1.702 -0.126984 1.45118 162 74 69
-1.18838 -0.160024 2.39093 143 96 74
1.53343 -0.14177 2.44064 138 106 78
0.998914 -0.13674 2.17291 136 104 84
1.52822 -0.123558 2.54212 76 48 30
-1.30371 -0.112266 1.88422 154 100 80
0.632204 -0.119794 2.59926 120 94 65
1.04143 -0.100293 2.18148 60 44 38
1.45765 -0.0594265 2.4235 66 44 30
1.26645 -0.0472437 2.24469 127 104 82
1.50951 -0.0448685 2.44499 98 64 30
-0.179353 -0.0428748 2.76515 132 112 86
1.43556 -0.019704 2.22185 137 124 99
-1.77255 -0.0362061 1.56188 126 52 38
1.3762 -0.0112663 2.29699 86 60 32
-0.0362661 -0.00424691 1.96431 159 116 93
-0.115579 -0.0069748 1.88752 140 94 75
-1.26803 0.00470332 2.35217 168 120 100
-0.26658 0.0130808 2.09786 156 92 72
1.48907 0.032584 2.34259 136 104 78
-1.82833 0.00430504 1.62873 157 107 60
0.968233 0.0302525 2.17956 112 70 50
-1.77372 0.0031177 1.55664 112 26 6
-1.47761 0.0285555 1.6946 140 74 52
-0.3259 0.064262 2.62602 160 111 88
-1.52591 0.0763013 2.58484 150 100 70
-0.231498 0.0736295 1.80251 98 28 22
-1.37706 0.087318 2.42641 190 142 120
-1.67269 0.106041 2.69639 139 114 90
-0.309766 0.115408 2.63374 124 77 50
-0.293787 0.112839 2.58991 124 78 49
-0.13817 0.0809453 1.82755 113 26 20
0.641264 0.125437 2.42919 81 75 61
-0.162806 0.0948002 1.79748 96 25 21
-0.341682 0.135176 2.60643 102 58 30
-1.70637 0.145534 2.82303 148 122 100
-1.5353 0.158301 2.56044 140 94 68
1.31428 0.169699 2.21666 88 46 31
-0.313626 0.193111 2.58275 106 68 44
1.40222 0.213237 2.3626 118 94 84
-0.293035 0.175123 1.89903 134 66 58
-0.69002 0.219276 2.53703 183 130 102
-0.267832 0.175825 1.89249 128 34 28
-0.89822 0.21362 2.39161 96 57 42
-0.400753 0.202997 2.11459 150 122 106
-1.54822 0.224732 2.50775 128 98 71
0.14726 0.217187 1.92207 142 92 84
-0.405475 0.233879 2.07015 140 112 100
-0.270814 0.239656 2.05444 127 98 88
1.43569 0.289706 2.42585 140 114 98
0.863388 0.296435 2.38001 202 178 170
1.33738 0.318276 2.35218 133 102 86
-1.47515 0.2473 1.79343 144 94 82
-0.0456165 0.27512 1.85102 134 45 36
0.830909 0.379285 2.38791 190 167 160
-1.81375 0.277056 1.75333 155 92 81
-1.57142 0.291975 1.74257 136 58 25
-0.264423 0.350211 2.07776 148 70 58
0.0447175 0.344996 1.86834 140 112 108
-1.66116 0.373225 1.825 148 114 89
-0.0368709 0.444063 2.04543 153 32 30
-0.126379 0.448347 2.05588 134 36 36
-1.63771 0.402724 1.8794 104 36 30
-0.224808 0.458163 2.05822 90 58 50
-1.65871 0.404181 1.78333 132 56 28
-1.74198 0.40988 1.75494 152 99 66
-1.6976 0.476583 1.82729 144 56 28
-0.120494 0.519884 1.97033 147 118 114
-1.35851 0.516088 1.94464 158 138 126
-1.79884 0.5669 1.9347 164 74 68
1.06886 -1.19601 1.88466 116 70 44
1.05241 -0.845226 1.67174 172 154 150
-0.480531 -0.997213 2.35666 39 21 5
-1.34481 -0.887352 2.08462 146 139 94
-0.429699 -0.893149 2.33987 28 10 0
-0.371556 -0.92786 2.47512 132 126 82
-1.22905 -0.810644 2.18122 74 53 32
-1.56364 -0.705749 2.15153 132 122 78
0.954175 -0.641308 2.24962 118 120 82
-1.22463 -0.61966 2.23026 75 34 22
1.00615 -0.569341 1.99683 126 19 16
-1.11707 -0.615579 2.3936 120 84 52
-1.2279 -0.54245 2.18574 97 48 26
0.770869 -0.504381 2.27215 144 98 76
1.25747 -0.445442 2.01703 158 130 108
0.707691 -0.43768 2.41104 88 64 35
-1.62398 -0.306766 1.48698 94 78 80
-1.64728 -0.292185 1.48016 23 21 52
-1.21884 -0.361255 2.12673 146 100 78
-0.734345 -0.364366 2.13813 110 63 42
0.702411 -0.385817 2.37134 136 102 76
-1.73184 -0.257309 1.47361 160 117 96
-0.63853 -0.320971 2.21772 128 83 58
-1.1136 -0.230335 2.0163 131 80 56
-1.55084 -0.165542 1.47261 158 142 145
-1.0827 -0.170056 2.17625 110 62 42
1.24805 -0.149996 2.18776 98 67 42
-1.59197 -0.0807655 1.44667 82 10 24
-1.62847 -0.0600188 1.44685 109 12 22
-1.72923 0.0443018 1.51006 144 49 16
1.22042 0.0943147 2.1482 148 116 101
-0.907434 0.134282 2.47385 91 42 28
-1.8335 0.157537 1.72018 142 78 54
-1.48115 0.173783 1.77122 124 50 44
-0.0870251 0.290476 1.87262 131 27 24
-1.64111 0.282712 1.64436 100 16 15
-1.64466 0.320068 1.77156 128 52 36
-1.65773 0.392884 1.83348 97 19 12
-1.60113 0.42875 1.88252 124 30 17
-1.66822 0.490052 1.8687 112 24 12
0.793166 -1.0588 1.90979 150 126 100
1.06499 -0.849943 1.64523 194 170 162
0.948605 -0.828735 1.6335 140 112 103
0.937343 -0.715207 1.75144 119 92 82
-0.00592749 -1.10949 4.22387 134 131 82
-0.66576 -0.691508 2.45184 132 78 46
-0.611166 -0.34314 2.21905 128 82 60
-0.476663 -0.244058 2.51389 160 122 104
-1.57675 -0.132739 1.48117 122 34 39
1.29043 -0.00792791 2.29399 135 110 94
-0.223955 -0.00433723 1.75841 146 88 66
-1.05593 0.242204 2.3535 82 34 17
-0.870592 0.271272 2.48069 154 126 118
0.13138 0.231952 1.87212 122 70 64
0.0901822 0.286615 1.85238 142 28 30
-1.69606 0.41924 1.83967 132 57 27
-0.099799 0.51818 1.99126 122 94 93
0.924874 -1.13856 1.90885 130 86 60
0.767511 -1.03541 1.92517 124 79 54
-0.391982 -0.968017 2.4669 100 94 54
0.489189 -0.878712 3.93223 118 116 72
0.667263 -0.585112 2.22375 114 90 54
-1.69858 -0.38939 1.44022 133 129 112
-0.48219 -0.480203 2.38739 87 41 29
-1.70434 -0.264076 1.43491 164 120 100
-1.73792 -0.216612 1.4322 162 128 108
-1.72873 -0.146194 1.48233 186 141 135
-1.3843 -0.144037 1.76722 128 68 38
1.26293 -0.135351 2.21745 123 98 76
-1.46952 -0.00372514 1.65245 122 50 20
-0.934059 0.0182195 2.61176 116 68 52
-1.60041 0.0548043 1.54498 105 36 38
-0.973408 0.128573 2.20866 120 70 44
-1.73927 0.135169 1.56807 135 46 22
-1.52794 0.270122 1.75712 132 69 32
-1.64977 0.321162 1.69744 127 46 16
0.656928 -1.03043 2.20975 110 88 62
0.656533 -0.961232 2.24525 124 116 78
0.746909 -0.753053 1.88832 135 99 81
1.04709 -0.708557 1.70333 177 159 152
1.18873 -0.718144 2.16849 139 100 81
-1.69138 -0.373872 1.41723 140 131 119
-1.69032 -0.354007 1.41621 122 114 108
0.818548 -0.442133 2.34677 80 48 30
-1.02747 -0.408503 2.11575 94 50 25
1.3678 -0.392093 2.16743 104 84 56
1.40768 -0.388824 2.36518 147 96 71
0.859423 -0.336042 2.5797 84 50 24
1.43755 -0.323906 2.36813 162 136 112
1.10862 -0.23128 2.15203 138 93 69
1.37042 0.014226 2.15863 138 106 81
-1.82216 0.127459 1.55167 137 87 30
1.09305 -1.38024 1.89792 153 140 92
1.12459 -1.35777 1.88696 151 134 88
1.04117 -1.27862 1.8952 128 71 38
1.14194 -1.28267 1.90476 127 104 66
-0.578506 -1.04726 2.31051 148 141 94
-0.602392 -1.02347 2.33801 58 36 20
-0.7146 -1.00474 2.38902 128 116 84
-0.611498 -0.962733 2.28967 86 51 37
-0.64152 -0.935723 2.31872 144 93 72
-1.26334 -0.793791 2.13361 135 84 66
-1.25464 -0.760966 2.14712 107 59 42
-1.23605 -0.75462 2.12861 95 54 40
0.834452 -0.700199 1.83115 121 86 67
-1.3605 -0.699383 2.06119 47 21 14
1.3828 -0.736943 2.28108 156 124 102
1.12782 -0.693858 2.16233 146 122 114
1.39651 -0.709304 2.3037 86 76 52
-0.609269 -0.690921 2.39454 141 86 58
0.845853 -0.692558 2.37222 134 85 60
-1.35959 -0.608752 2.11201 45 20 16
-0.483485 -0.632607 2.37735 102 54 36
-0.458875 -0.566986 2.37074 68 24 12
-1.00655 -0.58134 2.65349 144 133 97
-1.49589 -0.531578 2.2842 94 50 34
-0.344392 -0.506264 2.41603 144 122 110
-0.332983 -0.476283 2.42696 142 126 104
0.94002 -0.465249 2.42594 100 99 62
1.0363 -0.424838 2.10711 53 46 46
0.702477 -0.391389 2.37755 124 93 68
0.979896 -0.266823 2.10373 152 112 92
-0.402974 -0.278971 2.59234 159 122 98
-0.759856 -0.17194 2.48225 167 117 94
1.25015 -0.0232607 2.24173 124 96 79
-1.27292 0.0111485 2.36395 160 114 94
-0.052935 -0.0118813 1.88023 158 123 104
-1.27541 0.0715421 2.39299 152 104 86
-0.953487 0.102841 2.43503 126 78 64
1.03178 0.102807 2.18636 134 96 76
1.18299 0.154707 2.17946 170 146 138
-1.06933 0.256101 2.39558 96 48 31
-1.47902 0.251141 1.80437 132 73 62
-0.0877052 0.283667 1.85533 124 46 44
0.0303965 0.285603 1.83577 99 87 81
-0.133502 0.449228 2.03517 119 40 40
-0.166219 0.447099 1.99729 114 90 88
-0.258228 0.491312 2.06753 137 107 98
-0.169965 0.484668 2.03139 99 70 67
-1.47481 0.472732 1.92297 127 45 43
-0.119986 0.539921 2.05422 137 108 104
1.03615 -1.36195 1.918 154 139 91
1.13964 -1.33652 1.88763 149 134 89
1.14669 -1.30422 1.8944 128 111 64
1.12423 -1.25234 1.91591 110 83 48
1.09475 -1.22174 1.90182 108 66 42
0.996229 -1.20683 1.89757 102 53 26
1.13126 -1.20112 1.89667 128 105 80
0.826391 -0.895006 1.64004 114 20 12
-0.434171 -0.887929 2.35179 34 15 6
-1.37403 -0.788421 2.04581 98 56 38
-0.812796 -0.421064 2.07508 136 93 66
0.659434 0.121021 2.46926 84 48 42
-1.27061 0.192535 2.30321 125 76 61
-0.736999 0.241325 2.52572 126 79 52
-1.04907 0.228793 2.352 84 36 20
0.248945 0.237564 1.98595 172 154 148
0.901537 0.346947 2.59017 115 78 62
0.998702 0.332314 2.20986 142 112 104
0.925674 0.427199 2.62542 183 162 154
-0.217192 0.526075 2.05721 135 106 100
1.05475 -1.36435 1.85914 150 132 83
1.02775 -1.34157 1.94286 148 134 86
1.06719 -1.19678 1.87574 136 89 62
0.918046 -1.17392 1.87181 136 122 87
1.17014 -1.14618 1.90151 85 73 54
0.647235 -1.1203 2.14061 136 106 77
0.594038 -1.05696 2.08104 112 88 49
0.873042 -0.854965 1.6569 116 68 38
1.05415 -0.820199 1.69932 184 167 162
1.07764 -0.742619 1.70398 164 146 142
-1.48179 -0.781542 2.1494 102 64 39
1.21042 -0.696604 1.75323 152 133 124
-0.519654 -0.734519 2.37842 56 20 14
-0.677069 -0.727336 2.44591 62 20 4
1.33014 -0.698256 2.28542 48 28 20
-0.493601 -0.684655 2.40525 102 54 38
-1.10669 -0.667663 2.62713 137 124 78
0.83445 -0.616496 2.34677 111 46 32
0.667517 -0.58747 2.22139 112 84 47
-1.04477 -0.610874 2.59949 125 101 60
1.26057 -0.447794 2.02178 147 121 104
-0.772965 -0.358753 2.05095 120 76 54
1.20773 -0.371303 2.09506 172 122 98
0.674713 -0.283542 2.4774 100 82 60
-1.12669 -0.232731 2.06976 118 66 42
-1.41021 -0.141575 1.82751 134 86 50
0.70658 -0.139727 2.50523 67 36 14
-0.573701 0.0415965 2.5219 190 143 118
-1.63186 0.103308 2.70117 120 82 50
-1.27185 0.0929895 2.33425 152 102 81
-1.4555 0.118898 2.42488 156 104 81
-0.107835 0.0811989 1.88439 110 26 18
-1.29049 0.128088 2.35323 150 102 84
-0.698097 0.183922 2.56156 134 80 52
1.37519 0.149006 2.21291 115 84 68
-1.48729 0.194765 2.47926 124 79 55
0.151603 0.169206 1.91474 142 102 90
1.40718 0.205253 2.2997 103 86 70
-0.00453202 0.228988 1.78175 96 22 17
-1.62103 0.450306 1.93682 117 34 14
-0.193289 0.600556 2.11906 174 146 144
1.54497 -1.21835 2.14937 142 126 84
1.41217 -1.21273 2.1854 132 116 80
1.36048 -1.18944 2.15207 149 136 96
0.682316 -1.193 2.20295 109 82 54
1.55614 -1.15002 2.05925 152 144 93
0.65025 -1.15276 2.13844 136 112 84
0.647382 -1.13187 2.13634 130 102 72
1.55833 -1.1059 2.03576 127 110 64
1.53018 -1.10576 2.04414 115 86 56
1.57572 -1.07923 2.00122 132 119 74
1.51148 -1.00964 1.92574 136 105 76
1.5105 -0.975262 1.8419 138 130 79
1.15998 -0.88308 1.61515 64 46 30
1.50164 -0.94577 1.82195 135 126 75
0.824219 -0.867555 1.61943 170 127 106
1.23761 -0.883328 1.6954 28 12 4
1.16681 -0.850988 1.63752 142 106 91
1.49353 -0.913175 1.87136 121 106 70
-0.545609 -1.00786 2.35939 42 20 6
1.37342 -0.868936 1.72752 136 118 98
1.31804 -0.852468 1.67538 134 102 82
0.948353 -0.831223 1.6318 108 81 71
-0.71874 -0.975051 2.35641 74 57 26
1.22489 -0.826293 1.661 148 112 94
1.45279 -0.87092 1.82975 114 106 75
1.23494 -0.803726 1.62768 136 93 68
1.322 -0.819633 1.69228 155 128 119
0.975916 -0.810006 1.67351 146 121 113
1.29114 -0.814954 1.69547 110 68 46
1.44041 -0.832343 1.78797 130 126 82
0.629063 -0.891071 2.10249 118 102 71
1.3921 -0.819664 1.79072 100 29 24
1.21899 -0.789015 1.67815 147 122 114
1.4923 -0.850433 1.92963 124 98 65
1.25188 -0.781386 1.68026 122 107 95
0.986254 -0.765883 1.66685 148 130 123
1.30483 -0.781106 1.74212 128 111 98
-1.50085 -0.832217 2.09916 150 141 98
1.41561 -0.793607 1.83384 136 70 54
1.44442 -0.792459 1.83814 107 90 46
1.21825 -0.74687 1.71867 125 118 106
1.37858 -0.763233 1.80788 118 70 62
1.10229 -0.730749 1.69102 175 156 150
1.3109 -0.740115 1.78757 137 124 112
0.72635 -0.753755 1.91555 130 92 72
1.06689 -0.731209 1.78913 133 114 110
1.11275 -0.736626 1.83287 138 121 114
1.34236 -0.734697 1.8106 130 102 84
1.44192 -0.748938 1.91695 100 82 47
1.27855 -0.704977 1.7995 120 100 82
0.84804 -0.787199 2.28935 158 142 105
-1.28139 -0.674677 1.80958 72 42 32
1.08687 -0.684693 1.74944 148 124 116
0.840229 -0.778797 2.37714 144 116 72
0.96089 -0.728826 2.13905 139 108 81
1.2627 -0.668114 1.76158 137 120 87
-0.350749 -0.736806 2.42347 114 104 58
0.847109 -0.726544 2.30858 105 41 17
1.18247 -0.675738 2.1776 104 72 61
-1.202 -0.671839 2.29462 100 68 34
0.781759 -0.684213 2.32288 116 100 56
0.805429 -0.649919 2.40506 126 99 62
1.35167 -0.646131 2.39096 88 34 26
1.18239 -0.61001 2.20116 98 68 54
0.757238 -0.601616 2.29574 116 64 37
-0.728623 -0.584991 2.26761 132 100 60
0.70011 -0.577979 2.22889 117 82 56
0.847609 -0.595279 2.33454 114 32 26
1.14534 -0.549902 1.98706 65 38 22
1.3322 -0.573211 2.34133 86 60 60
0.84944 -0.568397 2.40729 57 20 11
0.71862 -0.541603 2.22952 90 64 49
1.13808 -0.510876 2.02499 66 34 22
1.31744 -0.513163 2.10951 145 110 74
-0.973817 -0.565189 2.75968 102 78 45
-0.811795 -0.483358 2.25801 58 18 4
0.97134 -0.532929 2.56173 88 69 32
-1.02527 -0.484256 2.40488 94 54 28
-0.999573 -0.507657 2.62474 102 66 30
-0.935865 -0.452898 2.19645 108 71 38
-1.02777 -0.45194 2.21013 116 78 47
0.874866 -0.482889 2.40304 38 48 38
0.847754 -0.473648 2.3924 52 34 23
1.04846 -0.432201 2.02649 89 76 77
0.828416 -0.443671 2.36619 76 44 26
0.878903 -0.442438 2.36731 138 144 134
1.21607 -0.40526 2.06793 161 101 66
0.948304 -0.441819 2.63704 106 104 82
-0.523623 -0.415207 2.46006 82 40 26
1.30046 -0.387425 2.04932 67 28 16
1.49089 -0.401132 2.42178 148 124 102
1.18162 -0.358399 2.07613 166 118 98
1.44236 -0.366475 2.35854 152 118 94
1.40818 -0.359141 2.43465 146 102 80
0.719164 -0.34597 2.37405 150 119 94
0.763436 -0.325159 2.36711 140 104 83
1.10853 -0.304122 2.03944 80 56 56
1.46485 -0.324431 2.43074 140 110 90
-1.34055 -0.283316 2.23444 113 72 59
1.30351 -0.289361 2.21399 88 72 52
0.84649 -0.277059 2.52353 98 74 48
-1.4127 -0.250491 2.32233 132 110 94
0.6772 -0.254523 2.56024 106 86 63
-0.913753 -0.237945 2.44974 86 40 24
-0.895317 -0.248982 2.71577 104 56 41
-0.887892 -0.221225 2.06089 90 44 26
-0.94413 -0.228615 2.44127 105 58 38
0.687414 -0.228009 2.69174 122 95 65
-1.22201 -0.195121 2.10812 142 96 74
1.16714 -0.204685 2.21609 76 46 30
-0.951537 -0.18517 2.64835 88 44 31
1.19945 -0.191962 2.21187 62 44 33
1.57015 -0.202281 2.61563 135 116 86
0.955849 -0.18704 2.1647 161 126 102
-1.37824 -0.161467 1.821 141 100 79
0.829056 -0.169952 2.48845 92 57 34
-0.737228 -0.13498 2.36539 168 116 92
1.4827 -0.13282 2.39947 82 45 15
1.02652 -0.127942 2.42717 169 144 132
-1.38438 -0.0332023 1.82397 146 78 54
-1.41663 -0.0265011 2.03745 164 123 103
1.48581 -0.0354782 2.29774 126 111 85
-1.36755 -0.0267715 1.86795 154 106 94
-1.61252 0.0138648 2.71495 149 112 85
-0.26694 0.0110431 2.08946 176 120 102
0.828424 0.0337378 2.19836 170 116 91
-0.0590337 0.0391365 1.91779 104 44 28
0.636214 0.0818887 2.68053 115 98 73
-0.0951716 0.0448541 1.89026 138 81 64
0.842578 0.0779265 2.21305 142 99 84
-0.0494108 0.077968 1.93701 122 23 16
-0.142744 0.0726457 1.8361 78 12 10
1.09673 0.126837 2.15444 167 146 140
1.26959 0.129063 2.19965 178 127 108
1.28985 0.165086 2.16847 114 67 56
0.131197 0.168974 1.94517 144 106 96
-0.39355 0.204186 2.05064 134 95 75
-0.28626 0.204435 1.87455 122 98 90
0.00615721 0.198231 1.77074 110 24 18
0.903842 0.323138 2.59333 206 184 176
0.95377 0.337978 2.63886 192 168 162
0.183494 0.253116 1.92604 114 100 88
-0.000334464 0.268333 1.84527 187 168 162
1.2985 0.325874 2.28047 132 98 88
-1.54157 0.279269 1.82743 124 54 20
-1.53662 0.275864 1.76972 122 56 17
-0.165056 0.282673 1.82035 174 156 151
0.128851 0.379221 1.99643 144 88 82
-1.61636 0.379912 1.86254 102 10 5
-0.245133 0.410118 1.89244 144 65 58
-0.100547 0.452103 2.04602 111 22 18
-0.22216 0.465739 2.04618 76 46 38
-1.65671 0.498965 1.93345 116 58 51
1.47878 -1.21679 2.22735 134 113 79
0.801772 -1.16936 2.24006 142 124 106
-0.531702 -1.05381 2.34494 138 131 86
1.36541 -0.892234 1.71063 128 91 60
-0.49338 -1.06808 2.48181 146 139 94
-0.439638 -1.0252 2.43165 138 134 84
-0.427931 -1.02138 2.47347 145 138 90
-0.420865 -0.930391 2.38483 48 27 11
-1.54886 -0.829322 2.17719 143 132 90
1.27248 -0.743223 1.7606 149 137 118
-0.51652 -0.785404 2.33859 36 11 4
1.31088 -0.675549 1.77143 132 102 68
-0.504838 -0.712281 2.37376 68 21 9
0.957754 -0.657774 2.22779 110 106 69
0.956829 -0.579346 1.98508 140 101 90
0.981323 -0.604278 2.58388 134 124 77
0.872198 -0.553155 2.36411 50 44 30
-0.819588 -0.537966 2.58791 117 71 44
1.18798 -0.459945 2.15854 68 27 11
0.865006 -0.405394 2.52041 67 50 34
0.878187 -0.358193 2.62274 109 92 66
-1.00461 -0.300909 1.99555 98 44 22
-0.714959 -0.294075 2.17546 115 63 48
-1.23691 -0.239669 1.94377 106 70 55
-0.735844 -0.241349 2.12939 108 61 41
0.70984 -0.182229 2.52104 73 52 36
1.3103 -0.151902 2.20828 96 74 54
1.5332 -0.0783972 2.41892 130 97 66
-0.915982 0.00970543 2.53986 110 60 42
0.88432 0.157059 2.37049 216 198 192
-1.12009 0.1798 2.37885 112 64 42
-0.927633 0.209018 2.48157 83 46 30
-1.16308 0.204883 2.36593 94 46 26
-1.0415 0.268871 2.46288 102 56 38
-0.394951 0.243055 2.01452 150 130 121
-1.56032 0.225474 1.68433 99 38 42
-0.164149 0.30441 1.8038 90 67 61
-1.54638 0.37231 1.94772 108 30 26
-0.221387 0.417864 1.90054 124 31 28
-1.64622 0.429952 1.83877 107 52 40
1.00794 -1.30523 1.90277 149 138 92
0.696608 -0.951666 1.8549 108 70 42
1.13395 -0.886465 1.61483 44 32 22
1.17434 -0.879094 1.65189 130 91 68
1.20528 -0.83594 1.6697 140 112 103
1.3811 -0.842681 1.76037 130 120 104
0.947494 -0.779924 1.64374 143 118 110
0.695511 -0.790854 2.06957 99 64 24
1.23446 -0.724406 1.72158 101 102 88
-1.56249 -0.725815 2.15142 134 124 84
0.814517 -0.669987 1.83738 108 90 52
-1.48505 -0.670659 2.08008 74 38 18
0.945199 -0.629938 2.22266 116 118 75
0.903652 -0.602813 2.42839 94 59 36
0.979934 -0.560679 2.11861 138 96 80
2.45133 -0.81881 3.98193 140 139 91
0.729685 -0.463265 2.31072 158 126 105
-1.07351 -0.397773 2.1906 108 64 42
2.48075 -0.596871 4.24964 102 99 57
-1.10482 -0.371197 2.24744 100 57 31
0.994664 -0.408152 2.64809 147 132 106
0.975564 -0.269822 2.13264 154 108 86
0.926781 -0.283746 2.62197 104 90 58
-0.911581 -0.261962 2.49725 84 40 22
0.929682 -0.24735 2.58032 91 75 46
0.718773 -0.215331 2.55937 64 44 28
0.902604 -0.204018 2.22484 168 102 68
0.853912 -0.197639 2.35594 90 62 38
1.47627 -0.12902 2.45967 42 18 8
1.47815 -0.0511549 2.45254 44 20 10
1.41278 -0.0239268 2.34472 88 60 30
1.46505 0.0120993 2.32463 136 108 85
-0.351844 0.0513256 2.55859 140 89 68
1.4934 0.0986686 2.37949 142 128 112
-2.05463 0.26687 3.85709 136 90 66
-0.259419 0.13253 1.80415 134 79 61
-0.326659 0.172032 1.92639 115 80 61
-0.255824 0.16126 1.784 144 78 70
-0.281806 0.170489 1.85506 141 114 106
1.3334 0.203885 2.24688 128 102 86
-0.285402 0.238711 1.91528 117 90 82
-0.0931316 0.30651 1.86533 126 28 30
0.897171 0.478147 2.52956 178 158 151
0.0672535 0.38573 1.94566 129 20 20
-0.509464 -1.00467 2.29675 48 28 10
-0.56326 -0.961219 2.31004 74 40 24
1.23613 -0.50465 2.13474 98 62 42
1.27471 -0.331552 2.15017 149 124 102
-0.485942 -0.265049 2.5302 159 122 106
0.64036 0.131728 2.71285 101 81 59
-1.24058 0.269586 2.34567 116 69 44
1.04707 -1.37031 1.89281 158 142 97
1.14341 -1.31701 1.89045 142 128 84
0.597506 -1.16917 2.14411 138 124 80
0.656181 -1.11979 2.15344 146 118 95
0.629637 -1.07615 2.07715 116 92 72
0.728481 -1.16896 2.40798 135 100 50
1.03974 -0.996207 1.78456 84 49 30
0.619177 -1.06574 2.14341 128 92 62
0.619324 -1.03947 2.18299 149 114 77
1.00904 -0.917993 1.72729 93 58 32
0.648328 -1.01837 2.16461 98 74 50
-0.72334 -1.02472 2.55101 152 144 102
-1.36826 -0.916857 2.19082 118 110 66
0.702527 -0.997342 2.30317 134 120 92
0.688969 -0.857723 1.80944 130 99 83
0.636593 -0.883825 1.95348 102 86 68
-0.7081 -0.936479 2.34783 68 28 14
-0.761347 -0.952076 2.43681 146 136 100
0.646143 -0.918452 2.15859 124 108 88
0.668147 -0.933588 2.28699 138 129 84
-0.689152 -0.886587 2.32049 159 99 74
-0.778073 -0.880244 2.42093 128 119 80
-0.741325 -0.861625 2.34326 48 18 10
-1.22425 -0.824291 2.22243 128 109 68
-1.58085 -0.783433 2.22326 120 110 68
-0.763891 -0.830422 2.42005 69 52 24
0.721677 -0.75111 1.90141 115 82 61
-1.61689 -0.78537 2.39617 135 125 88
-0.750668 -0.822403 2.53568 148 142 102
-0.516467 -0.784971 2.34213 32 10 5
0.826096 -0.688719 1.86221 84 46 26
0.893973 -0.666064 1.75905 128 81 60
-0.683989 -0.744231 2.46618 82 40 18
-0.665705 -0.71206 2.39758 82 32 18
-0.492449 -0.692462 2.39377 78 32 19
-0.66271 -0.685741 2.41049 160 106 78
0.980907 -0.643869 2.25191 72 66 46
1.06532 -0.611222 2.09123 129 80 70
0.922824 -0.592042 2.05498 114 88 76
1.06447 -0.587964 2.04579 121 70 62
-0.864574 -0.641339 2.75498 134 118 82
0.704943 -0.582739 2.23681 134 84 62
1.00584 -0.545345 1.93845 133 62 43
-0.798732 -0.613806 2.64396 142 97 70
-0.825232 -0.611006 2.71184 124 80 54
-1.36937 -0.543359 2.24432 70 25 16
-0.91967 -0.615923 2.88696 144 126 96
-1.52165 -0.5169 2.19443 134 88 62
0.688352 -0.515293 2.28104 79 48 32
-1.06424 -0.530834 2.53069 114 71 48
-1.60678 -0.403551 1.42578 156 148 129
-0.419727 -0.483488 2.38618 152 102 82
0.844654 -0.471101 2.36701 46 30 17
-0.482628 -0.471521 2.39547 77 40 30
-1.59533 -0.385342 1.44625 152 141 130
-1.86471 -0.621148 4.20486 148 129 108
-1.0328 -0.476313 2.52264 117 72 50
-1.6786 -0.371995 1.38088 115 109 105
1.07866 -0.418777 2.03877 78 43 30
-0.347408 -0.441689 2.41923 137 121 102
1.03863 -0.406552 2.00946 76 65 64
-1.53194 -0.426775 2.21685 173 122 98
-1.59536 -0.349969 1.45811 110 100 96
-1.40277 -0.407749 2.38378 62 20 16
-1.14449 -0.384646 2.12254 94 49 27
1.06002 -0.363675 2.00538 112 82 76
0.913296 -0.351912 2.09842 136 87 63
0.898886 -0.356985 2.25128 70 52 36
0.955812 -0.375259 2.63046 86 66 44
1.13625 -0.385082 2.79943 146 134 109
1.17157 -0.383828 2.7852 148 136 116
0.902733 -0.339974 2.13899 135 78 50
-1.5397 -0.360384 2.25311 132 110 88
-1.21861 -0.353374 2.11652 134 88 70
-1.39561 -0.353369 2.26318 69 26 18
-1.2257 -0.336187 2.10636 143 97 79
-1.61783 -0.309934 1.48163 114 102 102
-1.30063 -0.337837 2.14597 154 109 90
1.06514 -0.350817 2.74826 136 128 103
-1.67192 -0.300877 1.46449 80 64 74
0.893407 -0.314477 2.11673 144 76 41
1.26291 -0.300958 2.12609 79 54 30
-1.43865 -0.325711 2.30682 70 36 27
-0.576356 -0.323897 2.52636 130 90 70
-1.35118 -0.310775 2.25779 82 37 22
1.07888 -0.302106 2.71729 96 84 56
0.906091 -0.279859 2.17847 140 84 60
-1.61613 -0.277607 1.46849 102 18 21
-0.652372 -0.276704 2.16405 138 91 72
-1.37612 -0.285995 2.33742 66 30 23
0.764221 -0.263864 2.37936 72 48 26
-0.693768 -0.270709 2.30087 128 79 64
0.851348 -0.249201 2.12602 130 88 68
-1.53412 -0.25396 1.56123 160 129 110
0.652946 -0.248931 2.42799 96 76 62
0.974608 -0.241645 2.66763 88 72 44
0.928312 -0.218755 2.12937 148 95 73
-1.12483 -0.251298 2.08356 120 72 54
-1.76832 -0.233448 1.5129 161 127 108
0.67034 -0.213389 2.50292 66 50 30
-1.38222 -0.221497 2.37535 148 102 82
0.606187 -0.193129 2.50995 142 94 69
0.93375 -0.156585 2.20197 92 62 45
0.65598 -0.149669 2.63158 120 84 57
1.38861 -0.123901 2.2952 87 53 34
-1.17205 -0.162907 2.20199 134 87 70
-1.73494 -0.178546 1.43923 147 55 44
-1.71622 -0.178287 1.43245 142 35 34
-1.1386 -0.160045 2.14123 112 66 48
0.717796 -0.103196 2.85446 124 112 88
1.36891 -0.0858557 2.28292 62 35 20
-1.41165 -0.142335 1.83558 136 90 56
-1.67994 -0.148156 1.39445 138 32 32
-1.61701 -0.146095 1.42937 112 10 20
-1.70831 -0.14423 1.42637 143 108 100
-1.56174 -0.138119 1.44489 148 96 101
-1.30017 -0.112317 1.90085 170 111 94
1.26608 -0.0435488 2.24882 124 101 82
1.34678 -0.0413743 2.2679 72 50 28
1.34112 -0.0437682 2.19773 94 62 32
1.07422 -0.04274 2.17343 183 160 148
-1.69503 -0.126793 1.43114 172 92 90
1.50289 0.000626817 2.45272 38 14 2
0.97953 0.00440783 2.10733 150 114 98
-0.649839 -0.00201468 2.38538 156 99 78
0.936013 0.0131021 2.11353 110 72 52
-1.76817 -0.0757652 1.57349 156 98 86
-1.58873 -0.0771679 1.43454 97 18 30
0.756407 0.04246 2.1731 169 145 138
1.18723 0.0678789 2.15217 154 119 104
0.844814 0.101904 2.27866 133 103 89
-1.70911 -0.0157714 1.58333 94 4 6
-0.284145 0.11787 2.6387 114 72 45
1.43659 0.162321 2.32542 101 76 64
-1.36391 0.0834177 2.38754 191 145 124
0.872235 0.157993 2.44506 180 156 150
-0.154957 0.150698 2.6849 150 124 110
-0.255992 0.0752509 1.8902 146 41 35
-1.44154 0.0820786 2.26667 157 106 84
0.895967 0.168479 2.43298 243 226 219
-1.79208 0.00262924 1.53284 154 106 62
-0.604686 0.131622 2.33915 158 104 81
-0.915553 0.141947 2.52088 85 38 25
-0.672487 0.158484 2.53337 154 102 82
-1.56049 0.0388463 1.60749 112 41 42
1.27143 0.192605 2.20067 66 42 26
-0.299007 0.192672 2.60739 111 75 53
-1.83068 0.0291699 1.51145 162 120 70
0.936851 0.209752 2.24302 122 70 55
-1.81284 0.0483102 1.50221 162 108 37
-1.60768 0.059786 1.56053 94 65 68
1.3664 0.255244 2.31158 158 136 121
0.204126 0.193569 1.98375 158 126 114
-0.28796 0.174768 1.89812 128 54 48
-1.78575 0.0740289 1.46923 170 115 48
-1.55641 0.236594 2.56505 126 94 72
1.25368 0.307426 2.25232 148 122 108
-0.919389 0.249139 2.44091 96 66 54
-0.285866 0.212597 1.92617 162 127 122
-0.260721 0.206248 1.87215 128 16 12
-0.0922509 0.204024 1.78988 52 38 26
-1.71569 0.119738 1.53935 130 26 15
-0.882405 0.270693 2.42826 150 124 116
0.20571 0.259423 2.023 137 68 58
-1.78447 0.0913835 1.47464 148 95 32
-0.145168 0.229394 1.83112 108 40 38
0.0302047 0.239405 1.85175 108 44 35
-0.40278 0.256513 2.06835 149 126 114
-0.0937487 0.245212 1.87231 100 20 15
-1.80922 0.130144 1.50579 148 108 66
-1.86403 0.113279 1.4022 151 52 66
-0.0892897 0.261036 1.85226 110 35 32
0.0886704 0.273943 1.84838 136 32 33
-1.01593 0.317285 2.39301 131 97 88
-1.76254 0.152001 1.52684 146 80 51
-1.64944 0.169514 1.60187 103 44 49
-0.0468817 0.282207 1.84355 123 46 40
-1.84913 0.14595 1.44728 140 88 57
-0.100204 0.323454 1.87747 134 64 60
0.0394181 0.313801 1.79195 136 70 66
-1.58734 0.237772 1.71548 25 20 35
-1.53277 0.274411 1.75147 142 74 37
-1.29735 0.359938 2.09094 152 128 119
-0.239877 0.406693 2.07886 132 56 46
-1.80398 0.271655 1.72325 153 98 84
-1.75783 0.266676 1.67484 144 24 24
-1.59283 0.308445 1.8059 135 60 25
-0.233955 0.467336 2.19418 103 73 64
-1.59632 0.294957 1.65958 144 93 75
-1.6511 0.294294 1.63467 84 16 12
-1.53356 0.371049 1.94435 116 63 50
-1.74624 0.296234 1.65523 160 80 73
-1.54797 0.365667 1.81817 135 38 24
-1.57871 0.369694 1.82183 138 32 13
-1.53737 0.407305 1.95555 138 72 65
-1.6503 0.396341 1.91202 110 57 50
-0.0875569 0.497632 1.9689 123 96 96
-1.66343 0.397791 1.86668 104 33 16
-1.56155 0.449374 2.01727 138 54 36
-1.63742 0.384945 1.69472 120 30 17
-1.73733 0.389563 1.72728 153 92 56
-1.61041 0.449795 1.91091 108 20 14
-1.63003 0.430644 1.7243 108 22 20
-1.36335 0.504378 1.9171 158 134 126
-1.61964 0.496399 1.8778 77 2 5
-1.79188 0.557983 1.91983 160 72 68
1.07985 -1.29344 1.86562 208 162 136
0.816709 -1.07411 1.93161 128 97 69
-1.31398 -0.766622 2.06787 51 24 12
-0.63595 -0.727749 2.40174 83 28 12
-1.20517 -0.643408 2.2824 86 46 26
-1.3828 -0.561938 2.10429 63 31 20
0.647798 -0.56259 2.24648 151 138 97
-1.24514 -0.546745 2.23805 124 78 55
-1.67955 -0.400408 1.43645 140 133 118
-1.41792 -0.451354 2.24021 75 32 23
0.711162 -0.240821 2.45652 72 52 32
1.13784 -0.204443 2.158 84 53 38
1.25965 -0.154253 2.21299 110 82 60
-1.36679 -0.167665 1.82797 167 126 106
-1.38304 -0.162251 1.81841 160 114 95
-1.69969 -0.171473 1.41627 150 54 50
-1.29163 -0.131801 2.36634 192 147 124
-1.42229 -0.127654 1.79396 144 108 63
-1.74973 -0.138718 1.4966 150 87 74
-1.6076 -0.0630495 1.42664 102 16 28
-1.35912 -0.0262964 1.87967 164 88 74
0.863521 0.134106 2.26902 136 102 88
-1.81137 0.0119328 1.51048 160 123 80
-1.56424 0.0471764 1.61123 87 64 66
-0.742302 0.163594 2.42903 146 92 61
-1.54766 0.0632553 1.6239 97 83 89
-1.88443 0.054538 1.46182 141 94 44
-0.397908 0.211211 2.04299 108 86 72
1.01966 0.353189 2.26761 126 92 79
-1.46101 0.286976 2.37985 115 74 51
-0.98658 0.311559 2.37528 128 95 86
-1.46337 0.334471 2.59154 134 90 64
-0.126567 0.28815 1.83929 144 133 129
-1.8732 0.175749 1.43464 154 102 91
-1.57389 0.242732 1.69408 102 38 45
-1.8877 0.183533 1.43108 154 108 98
-1.59229 0.255297 1.71422 100 46 46
-1.63738 0.485377 1.89266 76 5 7
-1.65671 0.488813 1.8372 116 16 8
-1.5763 0.557303 1.85893 96 8 12
-0.734384 -0.77381 2.45059 140 114 78
-0.297873 -0.581692 2.40097 105 100 60
1.23314 0.0561379 2.16328 156 122 108
-1.12026 0.183676 2.39382 108 57 36
-1.61561 0.0785752 1.57551 92 86 89
-1.51884 0.17797 1.75214 112 24 26
-1.58689 0.211807 1.66421 70 41 48
-1.17943 -0.660114 2.23696 113 85 47
-0.34795 -0.332804 2.69327 145 126 100
-1.5871 0.447422 1.87684 120 21 7
1.01045 -1.24216 1.95821 134 108 68
0.955583 -1.21886 2.11634 103 87 52
-1.55044 -0.826013 2.18324 138 128 86
-0.414818 -0.749226 2.40471 88 49 32
-1.07157 -0.175327 2.1916 119 76 59
0.889482 0.229759 2.28697 150 117 110
0.926674 0.250144 2.23136 105 46 46
-1.79131 0.0639626 1.47502 176 122 57
-1.52181 0.124163 1.67369 120 23 24
-1.60048 0.169694 1.59175 111 102 107
-0.223509 0.307971 1.85497 144 40 36
-1.31161 0.395708 2.20615 152 130 119
-0.0907246 0.530411 2.03937 134 106 103
-0.674875 -2.16499 3.84391 148 143 92
1.06328 -1.31015 1.90105 205 160 136
0.883014 -0.882311 1.66121 108 49 28
0.944027 -1.2508 4.14568 138 135 87
-1.34648 -0.817542 2.07503 88 56 44
0.935209 -0.63774 2.20512 74 72 45
-1.4461 -0.650112 2.09594 104 66 50
1.00682 -0.478737 2.13873 89 63 50
-1.34445 -0.493763 2.22299 121 64 41
0.766534 -0.376172 2.43899 122 87 64
1.20135 -0.33756 2.07483 156 118 98
-0.731909 -0.39222 2.12703 94 52 31
-1.07532 -0.346673 2.09021 92 51 26
-0.91339 -0.336023 2.04004 146 100 78
0.890712 -0.236416 2.11237 154 85 52
-1.68854 -0.3317 1.43658 110 105 102
0.640477 0.128817 2.72701 93 72 48
-0.203593 0.23476 1.80308 142 58 54
