ply
format ascii 1.0
element vertex 1294
property float x
property float y
property float z
property uchar red
property uchar green
property uchar blue
end_header
-1.30836 -0.634541 4.99745 99 72 50
-1.29756 -0.627265 5.00419 36 17 2
-1.3086 -0.627491 5.01413 126 94 73
-1.29326 -0.614965 5.00017 131 98 68
-0.515676 -0.545814 5.27724 155 144 102
-0.807475 -0.507383 5.17197 156 136 93
-0.759435 -0.45289 5.05109 220 166 134
-0.776519 -0.466954 5.16024 190 135 102
0.748564 -0.227246 4.67953 193 139 114
0.684871 -0.215621 4.72229 208 120 96
0.697281 -0.1911 4.65245 100 37 15
-1.39593 -0.376262 5.0211 112 55 28
-1.57405 -0.369633 5.00866 147 100 72
0.678407 -0.179593 4.77498 60 10 4
0.924819 -0.145117 4.78372 181 132 106
0.650383 -0.150735 4.78866 46 26 18
0.6648 -0.143809 4.73419 98 89 88
0.941526 -0.120373 4.74056 91 74 62
-0.857515 -0.268157 5.05194 104 62 30
-0.890965 -0.25541 4.93917 161 118 88
0.787154 -0.10293 4.77003 59 26 14
0.679304 -0.103363 4.76604 111 104 105
0.689392 -0.0882319 4.76942 98 92 94
0.765768 -0.0684467 4.76583 106 75 69
0.708961 -0.0605792 5.13104 90 74 54
0.618941 -0.0687583 5.20683 48 32 10
0.740046 -0.0689007 5.39802 40 20 4
0.705119 -0.0612456 5.3663 32 14 2
0.883318 -0.0229029 4.93261 62 34 28
0.824247 -0.0158236 4.82299 132 108 100
0.589807 -0.0272543 4.77821 108 51 22
1.03421 0.00936774 4.98436 166 138 113
0.644851 -0.00465927 4.72574 99 61 48
0.771447 0.0052304 4.75302 98 71 64
0.723317 0.00600499 4.80992 92 50 29
0.865705 0.0260778 4.97262 145 95 81
0.42782 -0.0126681 5.2165 158 132 108
0.354443 -0.00445649 5.01801 90 63 49
0.399696 -0.00122913 5.09208 145 121 106
0.395622 0.00970118 5.15667 151 126 102
0.426582 0.0120927 5.17668 50 30 22
0.49012 0.0286374 5.12445 116 98 84
0.762848 0.0554562 4.89107 110 78 54
0.458162 0.0339836 5.28026 34 14 6
0.440439 0.0330824 5.18065 33 16 4
0.979461 0.0817809 5.0686 126 94 73
-1.06838 -0.0720926 4.69033 77 26 10
-1.42882 -0.106303 5.15823 83 35 20
0.378157 0.0401562 5.03518 48 32 14
0.443196 0.0499123 5.19003 60 42 25
0.870544 0.101892 4.75113 102 83 57
0.913019 0.12102 4.95666 46 22 7
0.602137 0.101616 4.93784 74 29 9
0.583235 0.105338 4.9584 34 18 10
0.700722 0.125727 4.87193 163 138 127
0.871695 0.141526 4.95438 46 31 18
0.595493 0.12274 4.89773 130 102 88
0.998281 0.160134 5.1126 74 46 22
-1.82895 -0.0670049 4.34006 140 68 58
0.920178 0.173779 4.91607 59 36 14
-1.64895 -0.0392304 4.47448 152 110 92
0.991657 0.185187 5.07538 160 138 114
0.602668 0.154956 4.95296 155 130 118
0.88261 0.195991 4.93343 98 54 35
-1.83481 0.00322659 4.39013 175 115 99
1.06502 0.273968 5.01369 38 12 0
0.36822 0.241124 5.39696 98 84 61
1.07749 0.28684 5.05967 58 30 6
0.360907 0.25918 5.09573 142 88 65
0.633141 0.307124 4.81437 161 112 87
1.08035 0.396049 5.1218 197 178 170
0.989939 0.411827 4.91781 54 30 18
0.947334 0.442118 4.8648 154 136 124
0.587821 0.419883 4.91156 150 114 96
0.999115 0.47267 4.946 173 152 134
0.956539 0.468564 4.90452 90 66 56
1.0365 0.492775 5.00866 55 34 21
0.566299 0.445407 4.94537 129 68 69
-0.52528 0.323312 4.64391 147 96 88
0.561367 0.493879 4.90883 54 18 18
0.594111 0.502575 4.95398 91 54 56
0.552346 0.502587 4.89067 62 38 34
-0.534113 0.366801 4.61683 153 106 96
0.363784 0.467811 4.74116 218 197 190
0.954912 0.555721 4.99169 182 150 124
0.614724 0.590444 5.29113 220 195 186
0.619633 0.531902 4.88494 100 78 74
1.00892 0.600222 5.10841 202 174 162
0.638502 -0.582294 4.36777 41 21 7
0.39486 -0.690319 4.86622 94 66 39
0.44838 -0.712745 5.02972 156 134 94
0.371395 -0.580007 4.74821 112 94 77
0.410003 -0.625791 4.9594 126 119 84
0.390725 -0.575309 4.8652 146 122 98
-1.30549 -0.626971 4.95987 107 78 57
-1.30535 -0.625124 4.98962 132 100 78
-0.830952 -0.629736 5.16729 112 64 44
-1.284 -0.617426 4.98813 72 48 15
-1.31197 -0.623565 5.01644 134 95 76
1.12845 -0.295047 5.13693 158 130 102
0.760558 -0.230211 4.69868 168 112 88
-0.897408 -0.441792 5.49853 121 85 49
-0.922778 -0.426876 5.51517 112 74 41
-0.924686 -0.405783 5.51356 108 66 38
0.741089 -0.180254 4.73058 172 100 74
0.708714 -0.187894 4.91234 193 163 152
0.874842 -0.161454 4.80888 90 58 46
0.659013 -0.149665 4.80596 108 82 69
0.677979 -0.123277 4.81668 112 94 82
0.684195 -0.103035 4.77384 92 86 86
0.692911 -0.0885871 4.7779 80 72 75
-1.69266 -0.216702 4.28167 88 79 80
0.774091 -0.0694115 4.7797 76 51 48
0.812143 -0.0446603 4.82669 65 35 32
0.751547 -0.0709946 5.38747 62 49 26
0.916436 -0.0264284 4.83523 172 146 124
0.680473 -0.0671028 5.28511 44 25 8
0.819701 -0.0627932 5.52829 52 38 18
0.752647 -0.0454943 5.22132 82 72 51
0.818107 -0.0166137 4.81436 118 93 86
0.802458 -0.0138585 4.75985 97 58 47
0.900477 -0.000843205 4.80407 68 29 6
0.961078 0.00731645 4.87616 160 130 104
-0.936871 -0.103637 4.93327 98 40 23
0.382657 -0.00810959 5.05036 162 132 112
0.385151 -0.00205368 5.11358 50 21 8
-1.05568 -0.0937368 4.77834 142 96 82
0.439171 0.0254436 5.25819 157 130 111
0.817387 0.0647029 4.82683 86 55 30
0.432613 0.0301907 5.19685 132 106 96
-1.07359 -0.0762245 4.8588 126 74 58
0.970111 0.0809327 5.05256 123 91 68
0.820134 0.0973103 4.8601 30 17 4
1.01689 0.110135 5.09664 50 26 10
0.456245 0.0699957 5.29762 84 64 44
0.586523 0.0987532 4.90854 114 60 34
0.628918 0.103474 4.74186 168 143 130
0.586268 0.102405 4.93085 152 109 92
0.85502 0.120675 4.89605 26 12 4
0.972087 0.138566 4.9106 162 139 113
0.610181 0.116149 4.9022 46 20 4
0.695009 0.122264 4.84665 58 36 24
0.694093 0.125407 4.86499 185 158 143
0.585496 0.121299 4.99319 126 107 96
0.941023 0.149909 4.90483 182 152 132
0.603067 0.134581 5.04792 158 132 120
0.74027 0.143933 4.9026 154 131 120
1.06904 0.174076 5.06329 158 133 114
0.341016 0.111874 4.42296 126 98 81
0.962983 0.174396 4.95976 161 134 117
0.576348 0.153213 4.96084 22 10 2
0.946675 0.182704 4.87922 70 49 36
-1.63226 -0.0245961 4.50262 104 66 42
0.977113 0.204827 4.93755 40 24 16
0.853764 0.242916 5.03553 192 170 158
1.09716 0.289313 5.09039 77 50 27
0.350762 0.237914 5.26286 134 103 84
0.435049 0.251231 4.86558 168 123 98
0.437366 0.257344 4.84034 210 169 154
0.308406 0.273901 5.11062 111 84 68
0.366259 0.277039 5.13203 170 133 115
0.343195 0.282835 5.16503 145 122 105
0.498937 0.352219 4.91076 170 132 114
1.117 0.447308 5.08357 168 146 132
1.01364 0.43186 4.93914 76 52 42
0.97063 0.471876 4.92493 108 85 74
1.02372 0.498568 4.99031 184 160 145
-0.524195 0.325336 4.66313 142 94 84
-0.544641 0.340867 4.61827 177 146 135
-0.0493197 0.401285 4.70087 114 100 86
-0.623736 0.366639 4.64369 90 65 56
-0.399373 0.626163 4.67126 85 58 54
0.387648 -0.697133 4.8378 144 118 93
0.399148 -0.635123 4.62485 146 102 73
0.398964 -0.657584 4.9415 128 94 54
-0.809785 -0.612099 5.06022 147 83 61
-0.897073 -0.452035 5.59652 129 96 58
-1.60153 -0.376249 5.03403 128 112 78
-1.08633 -0.365637 5.38774 94 68 31
0.807856 -0.198413 5.08322 191 162 149
0.805826 -0.161848 4.73383 54 22 12
0.842049 -0.139044 4.65962 178 126 96
0.847858 -0.115606 4.85666 144 94 72
0.816161 -0.0957647 4.77973 81 24 2
0.753605 -0.0871196 5.39587 143 130 105
0.639128 -0.0570083 5.00072 90 76 58
1.12615 -0.0299765 5.15426 174 148 128
0.682842 -0.0461248 5.08539 84 78 55
0.925494 -0.011163 4.8752 91 48 26
0.728159 -0.0555996 5.51836 170 154 130
0.58079 -0.0286413 4.76333 146 86 56
0.724362 -0.044011 5.36967 60 44 22
0.936447 -0.00125958 4.85705 72 33 12
0.913137 0.0121417 4.82325 119 86 62
0.439762 -0.0336261 5.08826 115 89 56
0.604889 -0.00712783 4.76954 72 24 12
-0.85155 -0.0984819 5.03605 100 49 28
0.513015 0.00309414 5.16349 156 123 102
0.426866 -0.000833495 5.21272 50 21 8
0.440946 0.00915386 5.06604 168 133 112
0.523136 0.0253216 5.1684 54 28 10
0.500442 0.0269414 5.14923 66 44 30
0.437441 0.0338165 5.17715 32 15 4
-1.43456 -0.106228 5.15732 70 22 11
-1.63869 -0.102023 4.3146 138 74 72
1.0072 0.0947021 5.11237 43 18 5
-1.19808 -0.043201 4.88601 123 76 58
0.568169 0.0975945 4.87151 108 54 29
0.564526 0.101483 4.91887 120 94 84
0.849274 0.12155 4.8895 22 12 5
0.938257 0.133802 4.85909 162 137 112
0.824547 0.13127 4.90265 32 11 1
0.637376 0.119721 4.9538 50 24 10
0.976398 0.147406 5.12273 25 16 10
0.876883 0.140107 4.80517 184 154 136
0.604492 0.121266 5.02619 88 72 62
0.91341 0.149176 4.89289 84 56 38
1.06884 0.162427 5.04699 67 38 18
0.581384 0.125279 4.90027 133 108 96
1.09745 0.168471 5.26506 94 67 44
1.11217 0.179999 5.12953 154 130 110
0.674355 0.146649 5.0466 132 102 84
0.583544 0.14423 4.98891 34 22 16
0.939662 0.172351 4.91937 160 132 116
0.60546 0.152636 4.95006 154 131 117
0.94638 0.181006 4.9532 42 21 4
1.05633 0.196156 5.05101 46 27 14
0.73026 0.171837 4.8975 25 14 10
0.523715 0.16961 5.03225 106 90 71
0.349563 0.233515 5.34733 103 90 66
0.958908 0.44809 4.90352 38 16 8
0.544259 0.438356 4.90373 155 105 104
1.07411 0.51174 5.06889 180 158 142
-1.08206 0.331096 5.18263 68 29 18
0.543078 0.456078 4.87628 126 58 58
-0.0614719 0.385135 4.72877 130 112 94
-0.623519 0.347388 4.77328 98 74 59
-0.529213 0.360553 4.80146 152 126 111
-0.060436 0.410066 4.67314 170 155 149
-0.615863 0.377882 4.7286 92 66 58
-0.471195 0.37899 4.50099 210 182 174
-0.526832 0.527725 4.68752 152 86 74
-0.530877 0.531597 4.64632 75 22 14
-0.518969 0.570675 4.79581 97 60 51
-0.425453 0.570308 4.62523 70 34 34
-0.448757 0.602968 4.55615 82 52 44
0.524312 -0.547015 4.58172 160 130 115
0.379173 -0.579972 4.75462 96 84 66
0.41291 -0.51331 4.61625 108 80 68
0.399881 -0.577861 4.93184 97 79 41
0.383323 -0.543565 4.82834 136 104 78
-1.29121 -0.630744 5.03628 72 50 19
-0.792102 -0.614021 5.08522 132 68 48
-1.50187 -0.572043 4.87829 55 24 13
1.20707 -0.302745 5.25092 166 143 112
-0.850972 -0.441323 5.33706 100 66 27
1.19553 -0.270611 5.22729 106 94 64
0.921755 -0.239971 4.91875 177 125 102
-1.58929 -0.429422 5.0901 124 110 79
-0.925463 -0.422217 5.51846 123 83 54
-0.964742 -0.41545 5.54213 93 68 32
0.667212 -0.19204 4.66389 137 42 20
0.886821 -0.169799 4.8585 36 12 4
-1.06789 -0.371627 5.55016 134 124 82
-0.827052 -0.284432 5.00456 130 84 52
-0.892848 -0.253133 4.87193 165 120 88
-1.62555 -0.312532 5.08873 150 128 101
-1.62658 -0.296863 5.08668 130 106 78
0.673098 -0.103217 4.75252 82 74 76
0.812728 -0.0943512 4.77415 82 22 1
0.671672 -0.112225 5.22191 122 118 92
0.762524 -0.0635081 5.40427 55 42 21
0.727126 -0.0491709 5.17195 84 76 54
0.727371 -0.0167474 4.67755 110 83 77
0.545638 -0.0490659 5.16633 87 58 32
0.719475 -0.0505104 5.433 163 152 128
0.722633 -0.0468175 5.36028 66 48 28
-1.14063 -0.154438 4.77608 86 30 9
0.935112 0.000218762 4.85781 82 43 18
0.778169 -0.00637534 4.75993 52 23 18
0.625975 -0.0131959 4.84574 98 44 20
0.960009 0.0104008 4.89673 122 84 61
0.471079 -0.0324073 5.15855 109 84 50
0.428496 -0.00827531 5.15395 162 132 112
0.478731 -0.000943027 5.08938 160 128 107
-0.849312 -0.100373 5.06357 102 52 31
0.380699 0.00203415 5.08677 37 13 4
0.854668 0.0572211 4.94563 92 50 32
0.843205 0.0634726 4.86354 103 71 46
-1.0673 -0.0776753 4.80659 90 40 26
-1.42291 -0.106946 5.06921 62 19 14
0.907386 0.0890189 4.95515 38 15 3
0.926042 0.112304 4.96007 34 14 2
0.423125 0.0989606 5.18801 124 95 72
0.638234 0.11966 4.95786 48 22 8
0.923725 0.144871 4.87941 184 154 134
0.546462 0.116345 4.92072 126 107 96
0.931545 0.151094 4.91855 80 54 38
0.537871 0.124232 4.92369 161 134 120
0.573987 0.127167 4.8851 148 124 110
0.997548 0.171431 4.96019 164 138 120
1.01153 0.190135 5.05581 37 18 2
0.914303 0.186113 4.83542 46 30 19
-1.63772 -0.0215981 4.52175 72 20 3
0.54135 0.172837 5.06787 93 79 60
0.482904 0.266251 4.93544 188 143 126
0.361992 0.287412 5.18896 156 132 118
-0.51574 0.307912 4.85578 164 126 108
-0.525357 0.32812 4.66435 135 94 82
-0.633034 0.340959 4.71047 92 68 53
-0.0775238 0.418542 4.72378 142 124 118
-0.514544 0.38254 4.73348 142 110 100
-0.521423 0.57125 4.79016 110 72 63
0.372705 -0.628157 4.58246 130 87 58
0.394219 -0.658306 4.93835 138 110 66
0.394294 -0.585614 4.78941 96 82 65
-1.51886 -0.538669 4.93613 133 90 70
-0.901083 -0.425464 5.42507 140 98 64
-0.967562 -0.408636 5.48418 96 70 32
0.683277 -0.199011 4.77547 140 48 27
0.718504 -0.196636 4.75741 162 64 40
0.663349 -0.194436 4.77562 140 108 92
0.677532 -0.179991 4.64519 171 87 60
0.663291 -0.183566 4.83008 186 156 144
-1.67382 -0.276873 4.26477 49 45 64
0.663833 -0.147607 4.81195 48 28 18
0.768074 -0.121956 4.77438 34 15 12
-1.67701 -0.250146 4.26729 41 38 59
0.801689 -0.116368 4.79138 136 87 64
-1.63156 -0.298632 5.10619 130 106 78
0.819609 -0.0946723 4.79269 84 28 7
-1.70278 -0.219957 4.3255 137 126 113
0.842933 -0.109477 5.58168 90 76 54
0.776725 -0.0386387 4.76644 52 24 24
-1.18707 -0.182247 4.82546 79 37 16
0.644999 -0.0559466 5.02493 129 109 90
0.800324 -0.0193071 4.80694 98 70 66
0.588905 -0.0294299 4.78021 154 94 63
0.588075 -0.0360646 5.06054 157 146 124
-1.05037 -0.114334 4.79299 76 28 12
-0.941554 -0.105555 4.80891 102 46 28
0.609687 0.0204225 4.80142 168 124 98
0.394639 -0.00114425 5.13714 55 28 12
0.427665 0.00869724 5.17289 32 12 6
0.388855 0.0321817 5.16311 44 28 11
-1.44037 -0.106921 5.15627 62 20 15
-1.05825 -0.06981 4.78346 150 102 86
0.498684 0.042255 5.34598 28 16 10
-1.49078 -0.103443 5.18692 80 38 22
0.396322 0.0640475 5.15442 66 50 34
0.813118 0.0970511 4.87424 67 41 26
0.490387 0.0905423 4.72776 108 57 32
-1.63118 -0.0748056 4.27015 72 42 40
0.599636 0.129279 4.94093 104 82 72
0.924471 0.154759 4.99471 81 54 30
1.05796 0.167321 5.12017 72 46 30
0.533355 0.170776 5.06136 117 99 82
-0.413012 0.194286 5.18965 133 102 71
0.342777 0.27253 5.09306 164 136 123
0.333896 0.292996 5.1862 104 80 64
0.667687 0.316938 4.8003 100 58 36
0.596022 0.320446 4.72004 150 102 82
-0.624593 0.354407 4.80621 96 72 56
-0.473471 0.41865 5.21927 158 132 118
-0.526197 0.587932 4.77094 109 74 64
0.411781 -0.654963 4.59754 156 138 118
0.495177 -0.730404 5.15213 150 142 95
-1.31372 -0.659387 5.13081 44 26 8
-1.35372 -0.595418 4.84158 81 47 30
-0.861001 -0.638396 5.23932 52 30 10
-1.37494 -0.591623 4.88904 59 28 18
-1.50296 -0.571286 4.88442 54 24 13
-1.30688 -0.53463 4.97731 177 120 98
-1.49009 -0.485773 4.89761 93 54 37
-0.855472 -0.432981 5.24015 113 78 40
-0.556938 -0.409319 5.19619 151 102 86
0.814206 -0.238797 4.78655 153 96 71
0.796115 -0.24049 4.84499 170 90 67
0.664087 -0.151022 4.81385 70 46 36
-0.836239 -0.20524 4.91971 142 90 62
-0.851031 -0.19303 4.94289 86 35 14
0.702619 -0.0500471 4.8653 148 119 106
0.71069 -0.0570986 5.15404 124 105 86
-0.909437 -0.156575 4.84538 175 124 108
-0.831289 -0.158071 5.0063 86 33 13
0.67252 -0.0556797 5.3608 163 152 131
0.513623 -0.0459917 5.1128 107 76 52
-1.24896 -0.159718 4.82883 125 80 52
-0.918357 -0.136266 4.85084 86 34 18
0.780981 0.00601361 4.75802 58 32 24
-1.26231 -0.144702 4.87052 144 94 70
0.481819 -0.0212543 5.21409 86 63 27
0.4111 -0.014568 5.12938 178 146 122
-1.06604 -0.0979397 4.77231 169 118 100
-0.957612 -0.0893107 4.85403 156 100 80
-1.04878 -0.0899738 4.78725 60 15 3
0.493678 0.0276779 5.18879 32 12 2
-1.64408 -0.104782 4.27358 120 40 44
0.425476 0.0379976 5.25542 49 32 14
-1.48821 -0.101734 5.1689 82 42 24
-1.0198 -0.0605155 4.93376 160 139 114
0.64656 0.100189 5.03108 150 91 66
-1.21357 -0.0411109 4.94818 102 52 32
0.814327 0.188074 4.82801 107 68 48
0.573088 0.280784 4.63285 93 52 30
-0.525784 0.531088 4.71545 144 102 86
0.510918 -0.547671 4.32349 115 14 8
0.586828 -0.589165 4.53867 150 109 82
0.522856 -0.554785 4.57908 158 124 108
-1.36041 -0.687708 4.91356 60 44 13
0.380843 -0.574368 4.90147 116 106 61
-0.859009 -0.687834 5.16976 144 138 94
-1.33249 -0.664159 5.01404 42 26 16
-1.43782 -0.601832 4.88571 36 15 6
-0.598132 -0.493456 5.24997 110 61 46
-1.4114 -0.452233 4.93044 114 59 44
-0.819691 -0.278763 5.0296 132 85 58
-0.891965 -0.27741 5.07991 165 116 84
-1.58775 -0.299413 5.0569 190 136 105
-1.02851 -0.217176 4.65118 108 72 36
-0.884484 -0.225779 4.88031 80 44 17
0.666784 -0.100445 4.74918 52 45 46
-0.853262 -0.206822 5.03164 72 26 8
-1.11331 -0.196447 4.7173 220 168 124
0.681839 -0.0644742 5.31738 40 24 8
0.773249 -0.053172 5.27585 126 107 88
-0.941564 -0.123459 4.79578 182 126 108
0.765436 -0.00434716 5.07212 84 38 19
-1.517 -0.172202 5.03367 133 84 54
0.415121 -0.0302789 5.15271 166 140 114
0.594381 -0.00481647 5.23884 118 106 73
-1.08896 -0.11468 4.84421 100 52 44
0.604481 0.0196744 4.79498 168 124 98
-1.50751 -0.148019 5.17792 56 20 12
0.394506 0.012247 5.1623 116 92 62
-1.68174 -0.0766012 4.33029 156 114 112
0.459704 0.135119 4.483 30 18 9
0.345312 0.231488 4.97966 156 91 72
0.343779 0.264506 5.12449 166 142 128
0.347206 0.284904 5.08766 124 64 52
-0.560946 0.388279 4.66427 159 133 115
-0.459585 0.447694 4.76744 153 51 46
-0.206705 0.553745 4.62729 158 30 27
-0.533043 0.582803 4.73893 104 68 59
-0.513466 0.602691 4.66178 80 48 36
0.480589 -0.598583 4.56953 121 8 6
0.459484 -0.537176 4.46549 135 98 76
-0.822441 -0.660689 5.09771 114 68 51
-1.29993 -0.637791 5.00157 60 38 14
-0.63283 -0.414012 4.96947 48 16 10
-1.60634 -0.44474 5.10727 125 118 72
-0.975484 -0.416947 5.7181 97 62 28
-1.64879 -0.395167 5.17601 154 143 115
-0.469632 -0.316671 5.23718 106 75 42
0.681913 -0.0894805 4.84966 22 12 9
0.642492 -0.0373881 4.79898 180 145 124
-1.55142 -0.194841 5.08421 60 23 12
0.574698 -0.0406313 5.25001 114 83 60
0.589783 -0.00719792 4.74818 64 18 6
-1.57706 -0.175744 5.09677 156 144 124
0.551405 -0.0258252 5.46621 176 146 122
0.474868 -0.0244069 5.21646 121 94 67
0.567831 -0.00683294 5.32556 167 135 112
-1.4291 -0.111614 5.06051 58 18 11
0.690033 0.0996299 5.05224 160 118 90
-1.44989 -0.0577388 4.59537 118 59 44
-1.40443 -0.00157385 4.52333 128 24 20
0.400553 0.25023 5.10902 159 70 42
0.79825 0.401737 4.98351 144 102 86
-0.499397 0.339967 5.1086 160 130 114
0.347668 0.445926 5.17881 82 46 26
-0.542586 0.34923 4.82362 163 136 122
-0.474497 0.531916 4.52967 106 70 70
-0.54008 0.560872 4.65837 82 46 36
-0.518409 0.609031 4.77626 82 50 42
-0.892273 -0.176001 4.98345 144 98 79
-0.962242 -0.0947702 4.95281 158 103 84
-0.602251 -0.481834 5.1637 108 60 41
-1.06266 -0.101311 4.88006 119 74 60
0.732374 -0.00270138 4.77869 38 16 16
0.428618 -0.0182475 5.08249 86 61 33
1.01587 -0.315425 4.95588 35 17 6
0.658716 -0.541678 4.47523 160 128 116
0.76115 -0.0622041 4.76929 26 14 12
0.644358 0.303014 4.83099 164 116 92
-0.438468 0.685025 4.87866 100 68 62
0.519145 -0.166822 5.01168 101 60 42
-0.944356 -0.15004 4.95609 79 30 18
-1.5735 -0.265917 4.99609 84 42 16
0.637564 0.491805 4.8927 196 150 106
-1.40726 -0.481642 4.92338 138 78 62
-1.38795 -0.391262 4.99633 198 138 106
0.660962 -0.535882 4.39199 240 219 215
0.661126 -0.546559 4.4429 241 220 208
0.694141 -0.528111 4.398 232 214 208
0.634281 -0.527079 4.38923 227 200 193
0.680367 -0.522475 4.3912 106 86 76
0.64498 -0.519399 4.40075 88 62 56
0.657593 -0.47905 4.3976 84 64 58
0.652792 -0.467838 4.4555 207 183 172
0.62251 -0.437795 4.45841 166 138 132
0.682667 -0.45216 4.54062 88 64 54
-0.861502 -0.669343 5.21676 132 117 82
-1.27741 -0.610285 4.97107 86 56 18
-0.86158 -0.62068 5.22127 62 35 8
0.552745 -0.395324 4.57024 247 227 216
0.488626 -0.404832 4.61206 106 64 34
0.725685 -0.360908 4.51253 176 150 140
0.531977 -0.389247 4.63001 102 67 40
0.581094 -0.390921 4.67138 142 101 82
0.518513 -0.372674 4.59236 90 55 32
-0.820863 -0.476293 5.22179 172 126 90
0.680487 -0.328651 4.94395 122 108 88
-1.28212 -0.463175 5.04999 60 22 3
0.681895 -0.315056 4.99064 110 109 68
0.71131 -0.28388 4.78806 108 31 10
0.74627 -0.273684 4.76919 144 96 80
0.682107 -0.289549 4.93921 104 108 90
0.690024 -0.281622 4.99777 98 87 64
-0.493245 -0.355338 5.13565 68 40 10
0.669894 -0.278644 5.18919 160 144 109
0.816279 -0.255743 5.08259 192 164 153
0.677625 -0.252483 5.19439 150 145 104
-0.830783 -0.289078 5.04344 128 82 50
0.670994 -0.125914 4.75382 114 104 101
0.534181 -0.133795 4.98137 54 46 34
0.581206 -0.13778 5.15181 104 72 52
0.585921 -0.130419 5.10908 30 18 6
-1.24516 -0.210679 4.93024 122 81 54
0.80457 -0.0427214 4.81779 60 32 28
0.723466 -0.0204687 4.72169 131 105 105
-1.51156 -0.185419 5.0566 134 84 65
0.91415 0.0152116 4.8244 123 98 74
0.44014 -0.00792868 5.11225 74 52 20
0.773697 0.0266599 4.78791 186 131 110
0.797774 0.0295979 5.45547 81 70 44
0.630222 0.0386247 4.78074 226 198 177
-1.04385 -0.0862561 4.78938 68 22 8
0.777172 0.0574995 4.83013 86 42 22
-0.962635 -0.0768208 4.86591 152 97 78
0.380543 0.0270672 5.13966 32 17 4
-1.05419 -0.0765768 4.8035 137 92 77
-1.06928 -0.0747095 4.77498 76 24 12
-1.62975 -0.0999222 4.29621 142 91 90
0.462153 0.0666287 5.26791 125 98 76
0.877252 0.107261 4.9328 125 100 76
0.90033 0.116796 4.94907 131 105 84
-1.63935 -0.076515 4.30184 66 25 26
0.602575 0.108536 4.89771 70 38 24
-1.78733 -0.0778945 4.26143 112 58 50
-1.63979 -0.0638105 4.29093 146 120 119
0.920739 0.143246 5.06743 45 24 9
0.99419 0.164359 4.94828 118 94 72
0.567802 0.133001 4.90576 71 61 59
0.933938 0.162993 4.91667 52 30 16
0.673061 0.152967 4.86938 39 18 5
0.963851 0.186212 4.90292 60 42 28
0.546084 0.182299 5.02355 141 120 103
0.352919 0.239096 5.2646 114 80 63
0.675937 0.351088 4.78668 100 54 34
-1.69853 0.131977 4.42132 116 109 116
-1.66527 0.158238 4.42132 98 92 101
0.565144 0.425023 4.88866 131 88 70
-0.102046 0.389029 4.66188 136 122 108
-0.116713 0.404631 4.73286 92 76 62
0.57231 0.496805 4.89878 41 13 14
-0.094576 0.416447 4.71716 133 120 110
-1.52085 0.351789 5.10057 209 160 127
-0.105344 0.436045 4.74835 86 70 62
0.922377 0.567888 4.95651 220 193 180
-0.317885 0.400596 4.56153 118 80 67
-1.77276 0.339942 4.45423 108 36 3
-1.78553 0.442284 4.70856 104 50 40
-1.77317 0.454894 4.63647 148 98 88
0.533709 -0.572431 4.44769 170 133 111
0.650271 -0.539749 4.39349 207 184 174
0.667725 -0.538309 4.40399 242 222 218
0.64688 -0.532326 4.41088 186 162 154
0.657272 -0.525381 4.39599 214 197 190
0.66237 -0.480913 4.40779 99 80 73
-0.845484 -0.710666 5.18446 140 130 88
0.668069 -0.454897 4.46418 89 69 56
0.660306 -0.446386 4.52047 156 130 122
0.688044 -0.422626 4.41859 244 227 224
0.622994 -0.419475 4.46921 203 181 172
0.653728 -0.40905 4.43001 92 75 68
-0.838076 -0.647176 5.15111 161 110 86
0.5363 -0.39357 4.54501 187 163 152
-1.52901 -0.588347 4.92927 114 75 54
0.499271 -0.40568 4.62677 111 69 40
0.540516 -0.375267 4.54865 164 125 109
0.575404 -0.390791 4.66297 138 96 74
-1.27637 -0.453577 4.99154 49 11 0
0.704227 -0.280219 4.7248 115 16 11
0.633432 -0.333113 5.11542 108 68 46
0.679634 -0.269306 4.73218 156 76 53
0.812213 -0.23025 4.73519 165 114 91
0.711339 -0.239773 4.92401 96 82 64
-0.894664 -0.253732 4.91977 154 109 80
0.57769 -0.131868 5.08857 22 10 3
0.810272 -0.0695388 4.82073 121 82 69
0.762189 -0.0889212 5.41726 112 97 70
-0.572169 -0.1706 5.26389 100 68 40
0.817469 -0.0236822 4.83077 60 34 30
0.616344 -0.0527495 5.31215 101 74 47
0.866213 -0.0101482 4.78301 95 50 26
0.622006 -0.0281214 4.83922 132 76 44
0.4711 -0.0485301 5.1697 146 118 91
0.801771 0.0113665 5.45147 74 72 43
0.424927 0.00725695 5.14648 24 9 0
0.429137 0.0105873 5.18456 29 11 4
0.502739 0.0222111 5.12793 77 50 35
0.37394 0.02755 5.12007 32 17 4
-1.49286 -0.113366 5.09977 96 68 50
-1.07578 -0.0724049 4.78543 101 49 36
-1.0182 -0.027348 5.31793 140 126 100
0.421696 0.0887556 5.19841 108 79 58
0.912468 0.144169 4.87541 170 142 122
0.672219 0.153283 4.86978 66 41 26
0.346327 0.158347 5.21466 164 127 102
0.90635 0.390469 4.83343 162 126 117
0.922698 0.449411 4.86079 178 148 136
0.84335 0.482589 4.83947 200 173 148
-0.0539645 0.392937 4.69604 105 90 78
-0.0699952 0.445247 4.69943 100 76 66
-0.421889 0.433673 4.52829 64 40 29
-0.527516 0.53351 4.66734 84 20 12
-1.77087 0.431369 4.67027 122 78 66
-1.85568 0.446723 4.56664 166 100 80
0.688752 -0.555413 4.48345 203 180 167
0.652813 -0.533515 4.41881 222 196 188
0.657251 -0.523126 4.4208 97 70 64
0.655472 -0.51004 4.42508 179 154 143
0.678023 -0.484368 4.42721 82 62 56
0.389426 -0.579104 4.89169 105 87 52
0.679694 -0.440439 4.43951 166 148 144
0.638416 -0.420622 4.45422 107 86 76
0.636425 -0.429704 4.51364 218 202 192
0.618386 -0.419119 4.45896 194 173 164
-0.762361 -0.635684 5.11481 83 32 12
-1.30627 -0.621909 4.97046 140 102 78
-1.29387 -0.631684 5.05974 66 42 14
-0.861718 -0.624597 5.20364 51 27 8
0.538349 -0.392879 4.54345 220 200 188
0.531442 -0.375958 4.61289 86 50 26
0.692638 -0.302722 4.99667 74 76 52
0.674477 -0.26018 4.73152 172 100 74
0.8265 -0.23171 4.75296 162 114 92
0.819158 -0.228365 4.75531 175 122 100
0.691633 -0.282662 5.2285 160 144 109
0.707778 -0.24743 4.98339 152 134 119
0.669418 -0.214772 4.6939 206 122 93
0.697798 -0.23442 4.9065 108 94 76
0.662801 -0.262974 5.16408 62 40 6
0.654724 -0.168242 4.69236 163 68 42
0.684993 -0.152214 4.85073 68 44 36
0.907101 -0.0833145 4.77032 142 94 66
-0.587092 -0.21047 5.12606 28 6 0
0.559266 -0.0526249 5.19055 100 71 44
0.702502 -0.0462067 5.30517 50 35 14
0.798037 -0.00512549 4.7942 53 27 23
-0.9556 -0.0988132 4.85306 121 67 50
0.425593 0.00462387 5.05015 148 120 90
-1.49274 -0.115846 5.10349 96 68 50
0.820324 0.0719374 4.80894 96 66 44
-1.07873 -0.072974 4.81939 126 74 59
0.492716 0.0442417 5.13464 44 22 10
-1.62956 -0.103688 4.27673 134 65 68
0.589792 0.12579 4.89933 155 124 109
0.353579 0.13576 5.20844 132 98 72
-1.65336 -0.0265064 4.53491 134 97 81
-1.62458 -0.0213661 4.48654 77 29 5
0.61853 0.197547 5.06635 103 80 68
0.495607 0.363372 4.92448 134 96 78
0.526465 0.37038 4.92368 130 92 76
0.494879 0.517231 5.02082 203 185 176
0.92956 0.569691 4.9715 164 139 126
-1.71748 0.274777 4.55467 44 22 31
-1.60225 0.294857 4.56198 115 40 30
-1.77079 0.338122 4.47792 132 68 32
-1.79421 0.465407 4.69613 150 104 94
0.518683 -0.566765 4.41579 187 150 128
0.654745 -0.509399 4.42037 178 154 144
0.639099 -0.466159 4.43104 170 144 135
0.659114 -0.468571 4.50516 111 83 74
-0.856487 -0.699904 5.22852 148 140 96
0.62161 -0.436409 4.42791 61 40 26
0.65753 -0.443648 4.51249 164 138 130
-0.862327 -0.630459 5.23191 53 32 9
0.663986 -0.267647 4.86989 138 122 108
0.648969 -0.232352 4.7048 152 54 38
0.714224 -0.247802 4.99202 140 120 106
0.673047 -0.216285 4.70451 190 106 78
0.694431 -0.239088 4.99757 83 76 57
0.762996 -0.201508 4.71683 90 34 13
0.583909 -0.135059 5.14263 98 68 51
0.769548 -0.0715831 4.74805 124 84 69
-0.689719 -0.16976 5.2471 98 52 38
0.623479 -0.0280931 4.83994 132 76 44
0.92995 -0.0256132 5.66264 162 150 127
0.563669 -0.0354199 5.39561 113 86 54
0.741448 0.026449 4.86195 182 153 133
-1.06812 -0.103552 4.82728 144 93 79
-0.962553 -0.0959136 4.94405 146 92 74
-0.990912 -0.0715444 5.00729 143 120 96
0.431072 0.0349932 5.26968 44 28 12
0.917788 0.104861 5.04848 76 46 32
0.863723 0.124371 4.91574 20 14 4
0.586404 0.106354 4.9613 66 44 32
0.403417 0.132176 5.35899 106 70 38
0.904017 0.189418 4.8778 28 14 6
0.618527 0.196878 5.07107 100 80 66
0.379263 0.281425 5.17248 168 136 120
0.646674 0.289119 4.89821 136 98 80
0.737698 0.354986 4.9025 168 126 105
0.556778 0.465536 4.90695 158 91 90
-0.250737 0.394254 4.5567 154 76 74
-0.478849 0.404931 4.535 185 167 160
-1.76666 0.336196 4.46208 136 73 34
-0.519042 0.546578 4.75899 153 91 78
-1.69489 0.444213 4.60671 128 56 24
-1.78171 0.459339 4.65864 126 62 56
-1.87879 0.459865 4.62535 167 102 82
-1.79013 0.476849 4.64116 129 56 31
0.675214 -0.45834 4.45749 180 162 156
-1.4992 -0.597257 4.8533 104 66 42
-0.862074 -0.635544 5.23934 52 28 8
0.483541 -0.414094 4.62637 97 58 30
0.538681 -0.394736 4.54585 176 153 144
0.512533 -0.389176 4.59361 134 98 73
-1.47192 -0.473425 4.83174 113 72 57
0.710165 -0.282588 4.74488 132 41 34
0.794994 -0.284429 4.8368 156 134 124
0.684024 -0.262117 4.7549 158 72 54
0.624566 -0.246461 4.73321 181 153 142
0.662501 -0.232515 4.73605 142 42 28
0.685726 -0.219199 4.73526 182 94 68
0.686261 -0.23591 4.98543 83 72 53
-0.816322 -0.312934 5.01805 155 106 74
0.673392 -0.1767 4.77763 56 32 22
0.641504 -0.124988 4.76456 128 101 88
-1.06782 -0.103928 4.79129 162 108 94
-0.995745 -0.0680491 5.02242 149 128 103
-0.882723 -0.0486699 5.12926 168 118 95
-1.61965 -0.0813387 4.26018 155 132 132
0.703422 0.0977982 5.02369 128 94 72
0.566919 0.107053 4.92661 31 20 11
-1.50321 -0.0438634 4.59996 115 30 10
0.64943 0.143082 4.79004 166 140 124
0.563246 0.145009 4.9369 16 11 8
-1.42101 -0.0163304 4.62438 120 32 25
0.59093 0.192419 5.01908 105 84 73
-0.356583 0.180318 5.57064 106 80 46
0.390924 0.247891 5.47032 112 100 74
-0.884511 0.357013 5.23696 214 161 125
-1.69792 0.193962 4.3498 22 17 28
-1.6044 0.287101 4.57131 118 25 20
-0.30097 0.436349 4.52989 122 105 98
-0.256575 0.463909 4.60897 40 22 12
-0.517067 0.552598 4.79848 150 101 88
-1.72401 0.460099 4.69019 128 50 22
-1.8499 0.441206 4.60893 170 101 52
-1.59396 0.573188 4.6948 122 23 21
0.630658 -0.414769 4.51253 80 54 44
-1.45268 -0.588039 4.8394 161 116 93
0.577732 -0.390394 4.49885 163 136 126
-1.29813 -0.523669 4.8349 145 90 69
-1.42583 -0.45828 4.98271 74 36 24
0.698385 -0.290651 4.89873 87 86 70
0.695626 -0.266187 4.77284 156 72 51
0.766212 -0.148994 4.79006 42 15 10
-0.853774 -0.257282 4.93846 100 59 29
0.85196 -0.109967 5.59441 122 114 90
-1.11897 -0.193808 4.75351 215 160 120
0.86476 -0.0448236 5.60923 161 150 129
-0.947174 -0.109021 4.82275 104 48 31
-1.46718 -0.1414 4.99908 40 10 4
0.768269 0.0455422 4.85887 159 126 104
-1.50614 -0.124359 5.07886 97 64 43
0.61051 0.0690671 4.82382 183 140 115
-1.47019 -0.0608665 4.62995 146 101 80
0.610202 0.135724 4.96533 92 73 64
-1.41245 -0.0129621 4.59255 120 30 22
0.650361 0.200673 4.97358 102 70 48
-1.72157 0.18368 4.37458 38 32 42
0.668576 0.464055 4.88851 92 108 96
-1.52742 0.30876 5.16364 177 128 104
-0.468243 0.377167 4.50114 196 166 157
-0.242044 0.437193 4.50503 144 121 118
-1.73564 0.348364 4.5104 142 105 76
-1.72903 0.38997 4.59963 86 13 5
-1.66871 0.430536 4.74147 155 108 98
-0.364037 0.613079 4.69634 58 24 22
-0.413795 0.628101 4.69381 103 72 70
0.575223 -0.418109 4.4279 161 140 129
-0.837107 -0.627151 5.09735 70 36 22
-1.46745 -0.561309 4.8302 147 98 72
0.505039 -0.374747 4.56859 96 62 36
0.760678 -0.324472 5.045 142 124 107
0.681297 -0.246635 4.90486 79 76 64
-0.984023 -0.408192 5.5365 94 70 30
-0.601957 -0.267573 5.09381 130 81 59
0.704577 -0.157162 4.88871 103 78 68
0.560079 -0.175445 5.11392 156 118 98
0.706319 -0.101231 5.30497 90 77 50
0.61553 -0.0384918 4.76299 170 126 104
-1.56002 -0.172805 5.02863 158 143 122
0.471802 -0.000976448 5.1063 164 130 107
0.462747 0.026898 5.11219 34 12 0
-1.47757 -0.118807 4.95603 118 90 68
0.481846 0.0379368 5.11231 50 30 18
-1.6218 -0.102157 4.24031 156 124 123
-1.5068 -0.0627317 4.67382 158 136 114
-1.46903 -0.0598418 4.66872 134 86 68
0.565898 0.111885 4.94972 131 110 100
-1.31673 -0.0169282 5.07669 176 126 100
0.657799 0.136541 4.79314 132 109 99
0.388848 0.128375 5.32159 113 78 48
0.603908 0.309051 4.82923 100 54 28
-1.71532 0.140255 4.40407 20 15 28
-1.77621 0.316755 4.46665 72 7 6
-0.51946 0.577061 4.77896 62 20 14
-0.487387 0.571884 4.65589 124 96 92
0.489888 -0.438981 4.60611 160 132 120
0.592467 -0.247517 4.80563 110 94 78
0.680586 -0.2341 5.21292 78 85 49
0.667384 -0.160423 4.81388 102 80 70
0.669353 -0.12959 4.82071 132 104 92
-1.11166 -0.199554 4.6843 204 148 108
0.666148 -0.0642509 5.36019 161 152 128
-1.18511 -0.150465 5.03498 172 110 88
-0.947154 -0.128357 4.83486 107 50 34
-1.09944 -0.123717 4.68161 184 126 104
-0.885535 -0.0489587 5.26444 159 109 86
-1.20258 -0.0444955 4.76902 120 70 48
0.695671 0.156902 4.87843 136 116 103
-0.826728 0.36339 5.25793 194 140 107
-1.54314 0.307534 4.98199 102 64 34
-1.53747 0.354692 5.17338 158 108 76
-0.407146 0.41595 4.51154 141 127 120
-1.75542 0.436161 4.59801 134 90 76
-1.78072 0.475706 4.58516 136 77 33
-0.691489 -0.726771 5.04911 89 59 42
-0.785101 -0.702471 5.09713 128 86 69
-1.45702 -0.594412 4.86033 162 117 92
0.600332 -0.454307 5.08257 100 58 27
-0.492937 -0.365273 5.13691 133 110 86
-1.41521 -0.405336 5.0002 68 32 24
-0.471904 -0.289664 5.14299 132 118 88
-1.5847 -0.327914 5.03456 48 16 4
-1.10463 -0.203201 4.8011 222 168 130
0.711254 -0.00395307 4.7822 130 90 80
0.677316 0.00532413 4.78269 72 34 22
-0.346488 0.193943 4.60713 148 104 80
-0.369699 0.345407 4.52119 44 30 16
-0.611625 0.389773 4.79772 214 194 188
-0.421387 0.451689 4.55424 70 48 40
-1.45208 -0.632252 4.86615 118 78 54
-0.639068 -0.620369 5.0758 102 66 47
-1.47121 -0.610673 4.85448 146 102 78
-1.4675 -0.569535 4.85551 169 120 96
-0.497886 -0.375985 5.12839 42 18 4
-1.5797 -0.420297 5.03662 121 106 74
-0.594378 -0.34308 5.11725 103 57 41
-1.09454 -0.380003 5.38394 153 142 106
-0.761275 -0.628666 5.06768 106 49 28
-0.676607 -0.616057 5.0575 110 66 54
0.439462 -0.237031 4.95645 86 64 51
-1.60244 -0.366576 5.03229 124 102 76
-0.326513 0.606433 4.80246 92 18 17
0.488308 -0.545286 4.51938 123 82 60
-1.58734 -0.426596 5.05589 120 110 73
-1.6049 -0.4159 5.05772 154 144 115
-1.09365 -0.382011 5.40987 148 138 104
-1.51793 0.363382 5.12614 202 148 123
0.510788 -0.461957 4.60981 129 76 69
0.479255 -0.457557 4.5975 34 6 6
-1.477 -0.604997 4.92767 102 63 42
-1.41459 -0.444012 4.96076 113 61 47
-1.60125 -0.365325 5.02147 135 114 90
-0.714971 -0.655081 5.08765 166 109 86
-0.581423 -0.331721 5.11807 172 125 109
-0.506636 -0.318308 5.12387 157 107 84
-1.04627 0.341581 5.25013 92 58 46
-1.34657 -0.533183 4.90644 102 52 40
-1.04657 0.342037 5.23518 108 75 66
-0.358946 0.626077 4.74288 52 22 19
-0.801794 -0.572062 5.0761 104 36 18
-1.40126 -0.395661 5.00251 186 127 102
0.721616 -0.224455 4.71074 179 102 79
0.432542 -0.107121 5.06465 152 112 86
0.703932 -0.0264771 4.77873 139 100 90
-0.389612 0.423631 4.58219 76 66 66
-0.382561 0.453754 4.62032 69 48 42
-0.461724 0.607777 4.78232 132 105 99
-1.40012 -0.374781 5.00843 109 50 25
-0.581094 -0.335418 5.11827 150 105 86
-0.580053 -0.212045 5.18163 28 10 2
0.63055 -0.00645367 4.74985 87 48 35
-0.444936 0.408601 4.54719 90 78 72
0.405049 -0.557927 4.70469 88 78 65
-0.207033 0.437329 4.58454 136 117 112
-1.40318 -0.529652 4.92206 173 115 98
-0.515489 -0.493963 5.14949 84 60 28
-1.11579 -0.195068 4.79201 210 154 116
0.633779 -0.00327024 4.83714 81 34 18
-1.45559 -0.634818 4.87783 120 80 56
-0.809432 -0.508772 5.2086 155 136 94
-0.468372 -0.390917 5.14472 94 80 38
0.666754 -0.275802 4.79979 142 120 108
0.698179 -0.218881 4.74949 195 110 85
0.674142 -0.187237 4.77864 164 111 102
0.832949 -0.106947 4.74269 192 119 94
-1.51284 0.318406 5.14014 183 130 104
-1.4077 -0.485721 4.92263 112 54 40
-1.48132 -0.481152 4.87614 114 74 52
-0.982345 0.32595 5.23854 160 110 87
-1.50516 0.356514 5.08221 198 144 118
-1.36944 -0.589497 4.87276 58 26 14
-0.812868 -0.506544 5.19695 148 136 90
-1.20623 0.368777 5.12595 145 95 72
-0.793003 -0.703786 5.12695 109 60 44
0.697307 -0.288353 4.91289 82 84 67
-1.25408 -0.398435 5.03609 132 90 65
-1.40107 -0.398287 5.01281 178 120 93
0.757192 -0.0836633 4.73255 28 14 8
0.695339 0.0238853 4.79788 184 158 146
-1.20879 0.364836 5.12101 143 92 70
-1.10701 0.398199 5.17055 75 40 28
0.401814 -0.574332 4.78523 90 84 67
-0.488778 -0.431114 5.13247 100 70 30
-1.59946 -0.372478 5.02245 130 109 83
-1.25424 -0.248204 4.97406 94 51 28
-1.26424 -0.139612 4.86205 150 99 72
-0.639447 -0.629629 5.09102 70 36 24
-1.30389 -0.35783 5.04143 160 113 91
-0.589553 -0.221131 5.21038 24 6 2
0.380992 0.0446442 5.12689 21 14 14
0.689105 -0.443083 4.55576 80 59 48
-1.31172 -0.627239 4.99144 118 86 64
0.675958 -0.410167 4.57803 152 127 119
0.633483 -0.0089972 4.83469 64 18 5
-0.126168 0.22442 4.95939 134 93 72
-0.440199 0.411416 4.75544 198 154 148
-0.28667 0.482322 4.84628 168 148 142
-1.68645 0.626287 4.60964 100 34 30
-1.4288 -0.562699 4.89738 66 38 29
-0.479658 -0.377786 5.15657 68 44 13
0.611971 -0.277178 5.07325 140 123 88
0.55764 -0.259822 5.03018 126 44 34
-1.52035 -0.364826 4.961 110 63 49
-1.06483 -0.351938 5.24959 95 66 34
-1.04132 -0.351988 5.33054 156 140 112
0.422826 -0.140364 5.07079 99 74 52
0.772968 -0.0415469 4.75983 56 30 29
0.592227 0.098354 4.90622 73 28 14
0.701372 0.120756 4.85795 44 26 18
-0.124767 0.365271 4.86065 141 104 92
-1.49269 0.312658 5.06007 182 132 108
-0.387191 0.461646 4.8214 75 63 62
-0.410142 0.485988 4.81336 32 12 4
0.487368 -0.891843 4.97885 106 89 52
-1.46831 -0.609429 4.85222 141 96 73
0.508151 -0.324057 5.01175 143 132 89
0.729112 -0.254889 4.74155 115 20 10
0.509304 -0.20291 4.96671 156 110 92
0.597455 -0.255995 5.02034 66 34 12
-1.56911 -0.3793 4.94551 157 140 114
0.635486 0.0111527 4.84829 172 128 108
-0.435651 0.288406 4.83838 86 27 24
-0.186871 0.499319 4.80391 150 108 105
-0.419299 0.504127 4.87114 42 20 12
-0.245174 0.520186 4.86176 34 18 10
0.760989 -0.449066 4.54074 160 144 140
1.01064 -0.297792 4.91821 133 87 66
0.662814 -0.236253 4.94165 106 98 80
-0.594886 -0.273209 5.17097 134 85 66
0.5156 -0.174282 5.0394 158 120 98
-1.14955 -0.150372 4.86843 88 34 14
0.406326 -0.0096318 5.10689 158 130 110
-0.797349 0.369135 5.21083 202 151 117
-0.119242 0.385211 4.8747 104 88 78
-0.635533 0.412657 4.96974 214 195 190
-0.440262 0.431871 4.84896 182 156 145
0.740076 -0.133804 4.79521 32 22 20
0.652778 -0.0802833 4.85709 164 134 121
-0.372537 0.20492 5.37519 130 97 65
-0.81707 0.30101 5.19245 182 130 107
-0.36476 0.482381 4.81196 132 112 106
0.410958 -0.698628 4.88535 126 102 76
-0.827765 -0.28244 5.08516 118 73 44
0.512519 -0.197962 5.03427 151 107 86
-0.956466 -0.145793 5.02189 76 26 16
-1.12796 -0.103398 4.96409 88 40 29
0.632704 0.103512 4.88082 124 92 76
-0.964319 0.332442 5.21519 162 111 82
-0.494659 0.683909 4.96618 82 50 40
-0.840194 -0.633655 5.11435 65 40 14
0.736541 -0.422151 4.55019 85 72 66
0.575921 -0.484283 4.97819 138 101 81
-1.50548 -0.528131 4.88966 134 94 76
0.591946 -0.380525 4.97807 100 41 17
-1.12759 -0.203672 4.86121 208 154 112
0.850008 0.0070435 4.78287 172 138 119
-1.12293 -0.101084 5.08381 106 62 50
0.806936 0.0282626 4.7623 169 142 124
-1.44206 0.0192281 4.70521 118 19 13
-0.264949 0.40791 4.72395 96 76 60
-0.407824 0.450066 4.81039 88 72 66
0.392603 -0.692481 4.80227 100 74 42
0.58623 -0.447917 5.08007 128 86 47
0.666075 -0.234458 4.7099 125 18 6
-1.24746 -0.210421 4.96121 113 74 48
0.691616 -0.0561657 4.86418 114 86 78
-0.898697 -0.159245 4.96273 116 68 53
-1.15696 -0.155815 4.87276 84 28 9
0.629765 0.00103025 4.79316 80 32 16
-1.5597 0.367231 5.20601 193 141 112
-0.2273 0.438933 4.6673 159 144 142
-0.679286 -0.625226 5.09042 76 40 28
-1.30076 -0.619152 4.95335 118 88 68
0.64093 -0.40341 4.49638 140 115 106
0.565359 -0.442657 4.97698 100 57 26
0.666454 -0.2329 4.94161 84 74 54
0.441023 -0.0450214 5.10147 136 107 80
0.704931 0.00324163 5.32648 68 64 33
0.450027 0.00530137 5.01953 146 114 92
0.865991 0.079867 4.88334 64 36 20
-0.288979 0.415715 4.64616 90 66 58
0.400164 -0.553693 4.86436 149 124 102
-1.45089 -0.62998 4.87582 128 86 60
-1.07219 -0.366785 5.44571 162 148 120
-1.25375 -0.209081 4.97049 111 72 44
0.457028 0.00642666 5.04584 158 125 104
0.357386 0.056837 5.25644 122 97 70
-0.229335 0.433784 4.65398 139 126 124
0.428113 -0.808389 4.90714 148 124 95
-0.857373 -0.694006 5.20026 140 130 86
0.769563 -0.28316 4.8356 136 60 46
0.505345 -0.210459 5.00471 136 84 62
0.695956 -0.0524153 5.25211 160 148 126
-0.34629 0.196032 4.61457 152 106 82
-0.416775 0.605927 4.84404 152 96 96
0.446139 -0.602283 4.60921 135 88 62
-0.685953 -0.69983 5.08653 82 46 30
0.651262 -0.411996 5.13132 106 56 22
0.796474 -0.268916 4.8091 156 131 118
-1.2359 -0.380471 5.07132 92 55 26
-0.472748 -0.299917 5.23637 115 94 57
0.427767 -0.202208 5.00809 66 36 18
-1.06918 -0.068907 4.89341 142 98 86
-1.00862 0.326856 5.23745 72 27 14
0.832982 -0.357112 4.83196 150 126 114
-1.05845 -0.358198 5.34549 165 150 124
-1.08294 -0.351153 5.34017 93 55 24
0.426888 -0.225951 4.98087 172 140 121
-0.862527 -0.202605 5.03047 76 30 13
0.655915 -0.0950649 4.82036 64 42 32
0.675924 -0.0451725 5.26337 38 26 4
-0.441158 0.419342 4.72288 180 158 148
-0.277 0.431272 4.65969 154 134 129
-1.41587 -0.495913 4.92624 61 14 5
-1.27553 -0.405693 5.0867 140 96 72
0.39398 -0.22753 4.98328 68 38 15
0.66953 -0.198364 4.7962 155 124 110
0.422046 -0.198243 4.98785 69 39 22
-0.859654 -0.212275 4.93163 69 25 10
-0.443205 0.436364 4.66085 107 96 90
-0.801856 -0.511944 5.23718 137 92 64
0.41339 -0.231017 5.03989 82 54 28
-0.597409 -0.275925 5.1185 114 66 48
-0.781897 -0.704054 5.09766 131 88 72
-0.835781 -0.679455 5.24296 82 52 40
-1.33896 -0.636812 4.95508 94 65 45
0.412811 -0.542327 4.88354 126 98 68
-0.827846 -0.65546 5.21144 158 110 88
-0.805732 -0.628582 5.1301 82 25 8
-1.47177 -0.610363 4.86021 178 132 105
-1.29748 -0.607649 4.97806 66 29 10
-0.860012 -0.617145 5.24853 116 101 74
-0.797144 -0.583584 5.0925 88 18 4
-1.51184 -0.569046 4.87896 130 89 72
0.509766 -0.379069 4.57985 85 48 30
0.620951 -0.346106 4.54179 67 26 12
0.590037 -0.417379 5.1595 173 159 112
-0.517535 -0.453723 5.14703 134 111 90
-0.779618 -0.463408 5.1314 186 132 102
0.625562 -0.364162 5.08289 151 131 89
0.538446 -0.358977 5.02018 159 110 86
0.589851 -0.370012 5.17318 176 152 112
-1.28381 -0.452781 5.04333 56 15 2
0.757594 -0.287512 4.78642 149 124 114
-0.855529 -0.418422 5.21503 101 62 28
-0.590147 -0.39521 5.1689 127 81 66
0.704472 -0.268014 4.73734 116 22 16
0.729205 -0.266017 4.75057 136 60 55
-0.907271 -0.439243 5.64848 106 73 39
0.452803 -0.29152 4.98076 80 20 4
0.430575 -0.287336 4.98463 97 58 36
0.489525 -0.283861 4.98262 169 122 101
0.561594 -0.276731 5.06765 166 99 80
0.755531 -0.246633 4.97285 156 128 117
0.66829 -0.222898 4.71803 176 88 68
0.684161 -0.201398 4.75717 161 72 51
-1.04066 -0.387956 5.83802 160 146 123
-1.59242 -0.339402 5.0633 156 135 113
0.770871 -0.110145 4.74343 140 91 75
-1.70967 -0.265722 4.17024 94 94 124
-0.645634 -0.171361 5.26965 56 17 6
0.785839 -0.0441852 4.78751 50 21 16
-0.895831 -0.177944 4.83509 85 40 23
-0.946532 -0.114664 4.79478 164 111 96
-0.946826 -0.0970616 4.8666 150 98 82
-1.08625 -0.0886562 4.8116 104 52 37
-1.73989 -0.124055 4.23331 185 72 74
-1.20162 -0.0406758 4.85384 110 65 50
-1.62245 -0.0974355 4.27274 160 112 110
0.755407 0.172624 4.90586 132 100 84
-1.61732 -0.0804044 4.20788 68 32 30
-1.6244 -0.0745948 4.28169 154 114 111
-1.6243 -0.0721658 4.22812 46 18 15
-1.76421 -0.0821935 4.17059 79 38 32
-1.47896 -0.0181653 4.53115 147 54 31
0.667941 0.359984 4.86086 158 124 110
-1.85326 0.0411834 4.30883 132 53 28
-0.420626 0.248173 4.52603 36 10 9
-0.973383 0.345677 5.34769 188 140 111
-1.67272 0.124062 4.32992 124 118 125
-1.67578 0.13367 4.35383 114 110 118
-1.65466 0.154791 4.3723 105 100 112
-1.64841 0.159863 4.38089 120 112 126
-0.616565 0.357351 4.80851 116 95 82
-0.52567 0.372663 4.83695 156 118 106
0.636348 0.533082 4.92705 60 40 34
-0.541807 0.374601 4.80994 140 116 105
-0.534701 0.345697 4.62952 198 171 165
-0.525066 0.345955 4.60543 136 88 86
-0.587027 0.376802 4.76327 122 100 93
-1.69808 0.175297 4.38526 124 118 130
-0.629337 0.385844 4.78183 186 164 152
-0.631654 0.392373 4.77555 120 96 84
-0.629085 0.376403 4.69599 92 72 68
-0.401205 0.422435 4.70284 242 226 218
-0.418445 0.383759 4.51649 171 158 155
-0.428741 0.403656 4.54543 59 46 40
-0.479156 0.399888 4.5132 166 150 142
-0.450037 0.407802 4.52174 138 126 121
-0.433978 0.415632 4.53481 178 162 156
-0.448416 0.435643 4.5584 88 74 72
-1.62946 0.307537 4.51936 130 48 36
-0.444241 0.599113 4.78606 154 135 132
-0.435108 0.671664 4.82735 100 71 63
0.483366 -0.71093 5.09024 134 85 54
0.407587 -0.581491 4.9153 96 78 54
0.409145 -0.537531 4.69666 131 116 106
0.409267 -0.569473 4.89236 122 100 74
-0.7502 -0.643704 5.06627 178 116 95
-1.4548 -0.639086 4.88452 110 72 50
-1.4734 -0.613568 4.87589 155 109 82
0.443863 -0.452878 4.63927 164 136 124
-1.50704 -0.585465 4.89118 80 40 22
-1.50896 -0.562018 4.89223 96 60 42
-1.5219 -0.556704 4.89347 57 23 8
-0.529674 -0.533411 5.19431 146 134 104
0.516169 -0.379304 4.58641 90 54 35
0.556418 -0.416003 5.09878 167 161 112
-1.48631 -0.4839 4.87457 124 86 68
-0.803104 -0.481419 5.20317 83 37 13
-0.799426 -0.479264 5.25117 94 47 20
-0.76712 -0.466932 5.15915 201 146 117
0.600262 -0.364556 5.04708 111 78 42
0.579453 -0.358881 5.16724 134 106 72
-0.850748 -0.421666 5.23749 97 58 24
0.733357 -0.274899 4.76343 111 31 26
0.706267 -0.286847 4.89838 70 56 42
0.716895 -0.261699 4.75959 173 89 77
0.472894 -0.293347 5.01499 90 28 13
0.661946 -0.253602 4.71016 168 92 74
0.715133 -0.269817 4.96325 94 81 66
0.499566 -0.282466 4.99898 168 122 102
0.571033 -0.277652 5.0796 148 82 62
0.750636 -0.241117 4.88296 106 58 44
0.736984 -0.229921 4.73302 160 82 62
0.643431 -0.223084 4.68712 162 73 54
0.704662 -0.211309 4.72998 181 96 74
0.624012 -0.203647 4.67967 155 68 48
-1.00718 -0.36942 5.56044 76 40 16
-1.02567 -0.357886 5.48669 117 70 50
0.548018 -0.156455 5.0872 116 84 68
0.556241 -0.143682 5.07499 25 11 2
0.592725 -0.134573 5.11802 20 14 6
0.518147 -0.123744 5.07239 50 16 5
-0.558598 -0.198894 5.20503 98 80 61
-0.65006 -0.173518 5.25152 58 20 10
-1.08816 -0.134837 4.70872 132 85 70
-1.0414 -0.108787 4.78969 74 28 17
-1.05268 -0.10328 4.81278 128 84 68
-1.41438 -0.124092 5.03948 92 44 28
-0.960381 -0.0836091 4.89927 87 34 17
-1.41853 -0.114079 5.10541 86 37 22
0.438 0.0512565 5.18559 34 18 4
-1.04769 -0.0839554 4.80818 72 28 16
-1.07659 -0.0688022 4.77469 144 94 77
-1.62452 -0.105976 4.22516 118 32 32
-1.62097 -0.0963114 4.27402 163 118 117
-1.78689 -0.10915 4.21977 189 131 122
-1.76214 -0.0749366 4.17709 72 28 22
-1.75563 -0.074488 4.1744 178 136 129
-1.48064 -0.0182943 4.53814 148 66 32
-1.62216 -0.0249551 4.46217 110 69 38
-0.487078 0.185408 4.80996 137 75 64
0.435026 0.343511 5.03796 98 75 72
-1.67034 0.120507 4.3136 110 102 109
-1.08496 0.331795 5.1875 72 32 20
-1.67395 0.131923 4.34188 116 112 120
-0.610797 0.347222 4.77289 112 92 78
-0.567632 0.347451 4.70968 154 130 116
0.661337 0.531648 4.92724 38 20 18
-0.600852 0.357622 4.75164 150 130 118
-0.522228 0.355372 4.67128 154 120 114
-1.20628 0.363865 5.13676 116 68 50
-0.612212 0.387391 4.82264 100 78 68
-0.626302 0.386753 4.78931 149 126 114
-0.598866 0.395329 4.75077 140 118 108
-0.438624 0.398112 4.59741 182 162 154
-0.452712 0.396294 4.55004 202 182 175
-0.417433 0.397749 4.52142 70 60 58
-0.448502 0.403806 4.49678 132 116 110
-0.445329 0.430838 4.4913 46 26 20
-1.76662 0.276387 4.38012 50 32 40
-0.201224 0.549239 4.60618 135 41 37
-1.7674 0.431466 4.70851 138 94 87
-0.451913 0.651826 4.76169 106 77 68
-0.629872 -0.757331 5.13905 40 23 9
0.480129 -0.694167 5.11412 132 99 60
-0.678099 -0.696863 5.08032 97 62 44
0.453986 -0.613172 4.98108 84 73 50
0.466791 -0.61793 5.07686 116 108 62
0.421519 -0.594555 4.96507 128 116 86
-0.834661 -0.649262 5.1511 160 112 89
-0.752219 -0.636605 5.10923 93 38 21
-0.834787 -0.629542 5.22591 56 21 6
-0.859114 -0.635916 5.28361 99 88 56
-1.29756 -0.609222 5.00913 62 26 8
-1.48466 -0.587831 4.86256 152 105 81
-1.31732 -0.590064 4.91872 169 116 96
-1.5177 -0.584262 4.87676 119 78 56
-0.806636 -0.574929 5.04087 94 26 10
-1.51797 -0.550943 4.85092 57 23 6
0.550835 -0.417459 5.08603 167 156 108
0.586482 -0.343752 4.52035 160 134 124
-0.495323 -0.47508 5.21045 67 44 20
0.552119 -0.390041 5.12572 135 111 71
-0.757141 -0.472244 5.20408 188 132 104
-0.748066 -0.467804 5.1516 210 158 128
0.571801 -0.371959 5.14894 167 152 106
0.565213 -0.357371 5.14069 110 72 41
0.730277 -0.303205 4.75649 103 88 76
0.603972 -0.329508 5.06987 100 68 43
0.677863 -0.307697 4.89696 114 96 80
0.744885 -0.286216 4.95479 68 56 42
0.712447 -0.270613 4.95458 84 71 56
0.513608 -0.29021 5.07222 104 48 30
0.503209 -0.28459 5.00709 143 93 73
0.432172 -0.281112 4.96526 104 60 39
0.73868 -0.228614 4.73738 162 84 64
0.658283 -0.232661 4.76358 80 23 13
-1.22237 -0.387842 5.19143 94 54 27
0.639855 -0.20351 4.69906 161 73 52
0.542984 -0.206771 5.03891 118 90 72
0.672994 -0.178343 4.783 54 27 22
0.664033 -0.166516 4.71742 146 54 35
-0.586723 -0.26529 5.11333 178 126 106
-1.50488 -0.303257 5.00978 107 62 48
0.650111 -0.126653 4.72812 66 56 54
0.729592 -0.108307 4.74539 50 38 36
0.63537 -0.113868 5.18653 132 122 100
0.63818 -0.100391 4.80119 46 26 15
-1.45832 -0.230472 5.06118 88 42 27
-1.10795 -0.183813 4.88575 206 150 114
-1.51972 -0.184423 5.08056 106 66 57
-1.1495 -0.152934 4.81178 156 102 77
0.691209 0.0255722 4.78029 176 148 133
-0.946035 -0.0968443 4.87687 98 46 32
-0.962778 -0.0865642 4.86506 89 36 20
-1.08767 -0.0916116 4.79644 114 62 48
-1.03401 -0.0661225 5.00365 126 79 65
-1.07866 -0.0698085 4.76236 146 97 80
-1.73381 -0.128726 4.17275 174 59 62
-1.78896 -0.116469 4.2039 147 41 35
-1.79027 -0.109128 4.23519 174 103 96
-1.6446 -0.072641 4.21071 162 117 122
-1.64363 -0.0671222 4.21237 155 116 119
-1.65894 -0.0480473 4.36153 159 134 132
