ply
format ascii 1.0
element vertex 1299
property float x
property float y
property float z
property uchar red
property uchar green
property uchar blue
end_header
-0.411112 0.658863 1.02573 86 82 78
-0.50741 0.682068 0.991112 157 150 137
-0.351855 0.766321 1.00126 165 158 146
-0.15133 0.734972 0.69433 72 71 69
-0.4886 0.332069 1.49839 198 179 168
-0.0323162 0.266813 0.955458 40 32 28
-0.046639 0.516214 1.16648 86 82 72
-0.44108 0.426824 0.965609 68 66 57
0.10051 0.760256 1.45564 214 167 119
0.512793 0.797214 1.49094 178 144 124
-0.0886808 0.684595 1.09994 24 20 16
-0.399488 0.825362 1.09986 164 156 146
-0.265708 0.718946 0.73282 73 72 72
-0.484439 0.291063 1.50809 92 86 74
-0.493716 0.30808 1.54353 140 120 114
-0.177682 0.146317 0.837699 42 40 33
-0.164041 0.16446 0.873569 95 92 87
-0.389875 0.278618 1.27738 160 128 125
-0.058547 0.305101 1.09583 58 52 42
-0.486457 0.328349 1.1624 12 10 8
-0.374095 0.367979 0.844523 123 121 110
-0.0505193 0.565465 1.05232 200 196 186
-0.363064 0.668857 0.958619 76 74 69
-0.495561 0.685215 0.979845 202 195 185
-0.178472 0.726573 0.604337 24 20 16
-0.626009 0.367211 1.84779 104 98 86
-0.392295 0.28153 1.26166 72 63 50
-0.0242277 0.228396 0.927566 162 138 127
-0.510589 0.365995 1.18149 189 181 170
-0.209208 0.293894 0.740306 150 136 87
-0.435149 0.421796 0.956411 60 58 51
-0.474217 0.453072 1.02559 194 189 176
-0.431029 0.468296 0.914596 16 16 10
0.485949 0.869316 1.48769 152 124 108
-0.350214 0.655076 0.930789 75 73 68
-0.484236 0.659615 0.948227 174 168 154
-0.488407 0.293387 1.51758 88 83 72
-0.0751258 0.242641 1.09939 66 58 46
-0.0126656 0.218374 0.887652 192 172 160
-0.325076 0.212015 0.898808 142 132 120
-0.0880965 0.321388 1.15049 45 40 34
-0.28736 0.365094 0.826468 64 59 22
-0.469191 0.450796 1.01526 196 192 178
0.125323 0.815389 1.51348 76 36 16
-0.294104 0.460364 0.763041 196 182 166
-0.160356 0.883678 1.16019 8 7 6
-0.208851 0.693417 0.652158 26 26 26
-0.452183 0.299914 1.13342 79 74 66
-0.0952661 0.589945 1.35676 90 85 76
-0.38297 0.801011 1.06632 187 181 170
-0.477053 0.785436 0.978342 98 93 84
-0.185706 0.716939 0.648723 75 75 75
-0.375968 0.281454 0.902771 194 184 171
-0.24666 0.249266 0.749005 16 15 12
-0.342058 0.385376 0.891347 34 34 24
-0.252485 0.377945 0.709778 20 22 18
-0.328334 0.424735 0.770743 55 52 49
-0.0800381 0.611965 1.14606 224 220 205
0.505012 0.833406 1.44866 188 128 76
-0.261575 0.202575 0.93946 190 182 166
0.438206 0.867947 1.37372 125 66 39
0.54436 1.0728 1.61519 92 86 80
-0.352219 0.36187 0.838957 139 137 125
-0.347613 0.461158 0.772788 19 17 15
-0.410549 0.708364 1.02231 48 47 38
-0.366272 0.779363 1.03532 168 162 152
0.517719 0.514652 1.26145 220 164 127
-0.236759 0.364981 0.692632 69 68 60
-0.133206 0.772262 1.02488 120 116 110
0.332475 1.01599 1.22989 56 52 42
0.000818164 0.233704 0.836717 60 41 40
-0.348492 0.526482 0.896873 222 214 204
-0.446152 0.871744 1.20641 176 170 160
0.503449 0.870379 1.52191 202 160 120
-0.123377 0.759701 1.00005 131 126 118
0.330041 1.0307 1.25422 28 26 16
-0.0730034 0.191248 0.825725 117 89 92
-0.309532 0.37945 0.860035 10 12 6
-0.0522919 0.553582 0.992542 110 106 101
-0.09015 0.69875 0.951945 165 152 136
-0.114812 0.69962 0.900811 218 206 185
-0.0965956 0.702765 0.848756 174 160 144
-0.137427 0.791112 1.05531 132 125 114
0.126814 0.686024 1.35038 168 82 5
-0.159519 0.879397 1.14679 1 0 0
0.00477904 0.585273 1.49574 207 172 138
3.41156e-05 0.600824 1.55378 216 183 152
0.132748 0.682957 1.34913 204 124 28
0.14545 0.736485 1.33988 96 43 6
0.149941 0.746977 1.32502 44 14 2
0.132217 0.765044 1.32574 232 203 177
0.496012 0.83422 1.19154 5 1 0
-0.197332 0.926171 1.35071 50 44 40
0.453178 0.644673 1.34098 252 248 226
0.24183 0.770482 1.18054 180 166 155
-0.45768 0.714423 1.04282 58 53 48
0.210137 0.885354 1.24909 50 47 43
-0.132968 0.995502 1.25606 2 1 0
-0.428908 0.432108 1.77816 124 94 96
0.277969 0.463986 1.40294 240 210 168
-0.180675 0.614681 1.64564 144 136 127
0.07798 0.697556 1.36517 132 52 2
0.143463 0.702082 1.32073 135 89 52
0.272756 0.458063 1.3845 212 158 114
0.412614 0.585621 1.50272 140 78 41
0.100474 0.667034 1.40205 136 94 72
0.357212 0.73673 1.42112 120 64 36
-0.56207 0.68362 1.26777 206 194 176
0.508218 0.684168 1.17137 141 71 32
0.246662 0.808261 1.18903 46 42 42
-0.63912 0.571998 1.59566 134 122 81
0.110346 0.663573 1.38761 190 154 134
0.137055 0.700844 1.32682 198 160 129
-0.132955 0.686171 1.46954 216 206 192
-0.519417 0.634481 1.04681 221 212 198
-0.168863 0.89533 1.1814 2 2 0
0.54773 0.547444 1.35663 104 46 20
-0.598498 0.656329 1.37397 108 102 84
0.136355 0.704637 1.31249 81 36 13
0.415187 0.573455 1.44071 97 52 28
0.00825325 0.651711 1.68378 188 142 94
0.268803 0.546599 1.48245 150 96 58
0.353984 0.947798 1.33503 67 25 7
0.167282 0.700872 1.31604 216 207 194
-1.26443 1.36032 5.96752 134 128 118
0.166121 0.647267 1.3843 222 216 206
-0.195762 0.903881 2.04478 216 206 192
-0.863791 0.855971 1.90606 110 101 90
0.447744 0.660186 1.36672 235 209 180
0.140296 0.740346 1.37114 166 92 50
-0.0986043 1.176 1.44449 24 22 18
0.446625 0.791293 1.32797 124 54 18
0.406329 0.897878 1.13343 45 42 41
0.434591 0.496804 1.36657 106 58 24
0.121146 0.695115 0.953597 22 18 14
0.10426 0.705251 0.93909 25 23 17
-0.607123 1.3577 5.0456 88 82 69
0.32803 1.02532 1.33579 30 28 28
-0.589224 0.449471 1.39642 44 38 34
0.0393506 0.612707 1.48079 176 109 36
0.127833 0.711619 1.31224 130 46 0
0.150321 0.734939 1.28444 48 8 0
-0.512976 0.633804 1.02837 204 196 184
-0.482003 0.664073 1.05758 102 100 94
-0.456876 0.714178 1.01758 21 18 14
-0.17465 0.897038 1.15885 43 42 40
-0.56612 0.56167 1.34455 7 8 2
-0.166563 0.781711 1.31459 46 42 38
0.0957207 0.708814 1.3092 220 133 43
-0.514737 0.633189 1.034 224 216 204
-0.158545 0.956287 1.21071 42 38 38
-0.264236 0.476487 1.71415 44 40 32
-0.540682 0.468564 1.52223 66 63 60
0.576762 0.569083 1.07462 60 31 15
0.518686 0.691291 1.17989 210 183 162
-0.267766 0.867602 1.35388 234 220 200
-0.255452 0.497312 1.75077 122 119 104
0.168926 0.83726 1.19191 67 64 61
0.17243 0.941101 1.32986 29 28 25
0.516828 0.687592 1.17119 198 168 146
-0.124145 0.951798 1.18299 4 2 2
-0.276926 0.88783 1.40014 240 228 207
0.543667 0.880899 2.29691 106 59 38
-0.554322 0.748289 1.32829 147 143 132
0.146449 0.784411 1.36375 13 4 2
0.0858143 0.687817 1.3571 152 78 8
-0.142484 0.923563 1.17354 10 7 6
-0.221127 0.781382 1.53299 164 158 150
0.514101 0.661206 1.20009 93 62 38
-0.444544 0.760279 0.947565 212 204 198
-0.487971 0.664022 1.1012 96 92 86
-0.262363 0.884483 1.44557 148 142 130
-0.594201 0.611562 1.26533 214 205 186
0.56101 0.622835 1.64478 97 38 10
0.213328 0.707365 1.42933 178 150 114
0.150262 0.698904 1.27831 164 90 45
-0.622631 0.750692 1.43242 164 152 138
-0.445263 0.873183 1.20705 196 189 179
-0.477909 0.699396 0.987238 66 64 61
-0.374481 0.619144 2.09323 62 40 40
-0.583434 0.410308 1.72948 131 125 110
0.271635 0.750245 1.43293 180 157 119
0.150713 0.142734 -0.113683 88 72 59
-0.392649 1.05036 1.34976 125 117 104
-0.44634 0.693717 1.0982 64 48 43
0.533119 0.826167 1.15323 82 72 64
0.540221 0.831221 1.14922 158 150 139
-0.277859 0.843465 1.12068 58 52 46
-0.539172 0.668577 1.56834 82 80 75
0.271219 0.465821 1.42233 212 146 102
0.268707 0.54809 1.53992 138 82 54
0.162422 0.659306 1.41637 214 206 196
0.123314 0.691887 1.3831 222 130 48
0.137561 0.740139 1.37758 140 67 28
-0.441444 0.711562 1.07769 56 46 42
0.438257 0.83853 1.30408 148 86 51
0.28285 0.454683 1.37826 239 202 162
0.0952041 0.720395 1.38835 154 70 4
0.147366 0.707316 1.30775 157 88 50
0.0803427 0.724305 1.32903 146 67 0
0.108713 0.729799 1.32205 129 45 1
0.18452 0.612827 1.42956 150 118 97
0.121602 0.700782 1.38733 145 62 0
-0.492239 0.6989 0.98896 127 120 110
0.16199 0.801249 1.16545 16 13 10
0.474347 0.764041 1.06125 5 1 0
-0.364775 0.830546 1.0676 72 72 68
0.321063 0.754065 1.46005 54 8 3
0.500792 0.689584 1.13163 209 169 132
-0.436305 0.723167 1.06142 190 182 170
0.49882 0.911314 1.25196 42 40 37
0.264485 0.561726 1.56083 137 81 46
-0.628611 0.369538 1.58723 180 171 156
-0.659402 0.423649 1.49533 28 24 20
0.523925 0.681627 1.24593 92 46 22
0.0659863 0.720547 1.35035 232 201 180
-0.544297 0.798133 1.48462 86 83 75
-0.575663 0.503306 2.10529 92 90 84
0.150728 0.755963 1.31282 26 4 2
0.499695 0.760848 1.26867 80 44 21
-0.616813 0.392626 1.89532 28 26 20
0.0814203 0.684994 1.37469 214 212 196
0.316906 1.06636 1.30831 36 32 28
-0.495322 0.718908 0.993064 150 143 132
0.139195 0.696672 1.27985 115 56 23
0.171253 0.697143 1.43716 150 128 98
0.178709 0.901454 1.25921 46 45 42
0.185504 0.589119 1.54708 150 86 56
-0.361736 0.687054 0.822418 147 142 136
0.0937665 0.682767 1.42594 252 218 195
-0.258372 1.07491 2.9182 243 228 200
-0.437335 0.688553 1.04328 56 4 6
0.295683 0.704236 1.33601 72 50 32
0.159519 0.668752 1.43023 218 208 194
-0.458914 0.68531 0.929545 99 95 89
-1.45018 1.33268 3.12007 217 208 194
0.0633359 0.758445 1.56014 218 209 194
0.37049 0.693615 1.32295 122 59 37
0.0748406 0.723638 1.37246 180 92 34
0.0907929 0.698097 1.35786 196 108 39
0.0708845 0.724214 1.33893 103 52 8
0.487574 0.845569 1.07608 60 58 56
0.355499 0.842038 1.23407 104 56 40
-1.02867 1.72072 6.27226 79 70 60
0.466292 0.879217 1.32736 55 28 20
0.138314 0.683978 1.27244 128 77 30
-0.585072 0.5721 1.39035 123 122 83
0.101477 0.714159 1.30569 118 32 0
-0.448127 0.685081 1.08442 220 200 191
-0.482655 0.708535 0.998936 44 40 37
-0.582318 0.473398 1.57592 80 78 72
-0.27329 0.691291 1.76371 12 8 6
-0.558359 0.667032 1.36335 160 144 105
-0.442008 0.678942 1.08217 82 76 68
0.041598 0.6149 1.52093 166 107 28
-0.141951 0.640022 1.50832 185 178 164
0.109677 0.720849 1.30182 148 64 9
-0.441684 0.677956 1.08158 94 87 80
-0.5911 0.431421 1.47171 70 66 57
-0.590007 0.53422 1.50243 4 0 3
-0.00632512 0.574387 1.56956 143 84 35
-0.514721 0.631471 1.03339 225 219 206
0.182642 0.608002 1.41006 200 188 165
0.239131 0.776847 1.38984 59 31 12
-0.449215 0.684273 1.10601 125 118 110
-0.397739 0.771712 1.0014 178 172 164
-0.167764 0.892985 1.14807 44 42 42
-0.426803 0.26575 1.52225 188 180 166
-0.479586 0.363219 1.68076 74 72 66
-0.576728 0.613606 1.1956 32 28 25
-0.440886 0.700365 1.06025 194 166 164
-0.210851 0.58773 1.74181 98 90 79
-0.454012 0.676422 1.0749 221 216 204
-0.293021 0.865733 1.34921 186 174 154
-0.0859584 0.62329 1.57203 232 220 186
-0.472419 0.688994 1.09597 227 219 210
0.205234 0.619047 1.21348 134 106 64
0.0943425 0.836451 1.56964 160 76 16
-0.362803 0.53991 0.80504 175 170 158
0.352967 0.634635 1.16297 149 82 44
0.0181924 0.62922 1.63135 140 59 0
0.193204 0.643477 1.48312 59 50 34
-0.417316 0.711971 1.05253 86 84 76
-0.157181 0.967326 1.16312 4 4 2
-0.157593 0.720838 1.56036 209 200 184
-0.514743 0.761922 1.41015 84 84 76
-0.527187 0.633511 2.18062 193 133 143
-0.0999435 0.631503 1.68412 218 206 184
-0.248911 0.668634 1.99411 104 96 86
-0.460709 0.731858 1.86039 132 92 96
-0.145287 0.708023 1.51985 222 215 197
-0.172099 0.903561 1.17023 44 42 41
-0.653134 0.436572 1.89767 174 164 148
-0.634792 0.42677 1.83013 196 184 171
-0.757307 0.761959 1.66085 215 206 190
0.521148 0.666102 1.20666 86 53 34
0.573192 0.843585 1.1178 10 6 2
-0.448635 0.710022 0.975892 46 42 35
-0.460325 0.893859 1.08728 42 42 40
-0.51428 0.619612 1.04396 194 189 178
0.319548 0.506817 1.45385 208 179 160
-0.516359 0.622041 1.04997 197 192 180
-0.424437 0.729806 0.893667 210 204 198
-0.675029 0.617693 1.40931 154 145 130
0.464208 0.664807 1.40445 192 158 138
0.496468 0.797426 1.12398 62 54 48
-0.866213 0.746772 2.15207 214 199 134
0.538245 0.537612 1.31627 124 68 40
-0.643031 0.657651 1.54482 98 160 112
0.1001 0.657612 1.37442 168 134 112
-0.61954 0.592047 1.23118 142 134 127
-0.633097 0.64577 1.35882 209 200 182
0.584806 0.878973 1.18302 10 6 1
-0.60716 0.495401 1.27511 142 150 128
-0.00175885 0.587687 1.47107 240 220 192
-0.607743 0.516091 1.28642 82 79 70
-0.632577 0.608692 1.49366 9 10 4
0.607408 0.885495 1.18895 116 110 102
-0.557071 0.354908 1.70405 30 26 22
0.289241 0.462553 1.37575 140 86 50
-0.656266 0.653338 1.31471 114 110 103
-0.462142 0.875973 1.22121 201 192 183
0.539634 0.917091 1.23054 22 20 19
-0.384651 0.479669 1.96891 37 33 30
-0.576359 0.373814 1.4066 67 61 54
-0.178169 0.670986 1.65289 124 122 112
0.553295 0.624549 1.32433 202 193 180
0.162961 0.638466 1.33861 202 193 178
0.496283 0.597727 1.3239 117 66 45
0.123134 0.661521 1.35125 134 70 22
0.0730684 0.719527 1.31982 102 46 4
-0.444114 0.70612 0.997 29 24 22
-0.458476 0.809988 1.00473 76 74 71
-0.187559 0.746891 0.807959 72 64 56
-0.228569 0.772268 0.716334 56 56 56
-0.344813 0.239492 0.905781 14 9 4
0.00586355 0.474302 0.948729 207 198 184
0.287827 0.627437 1.21838 117 116 111
0.542682 1.04577 1.47103 18 12 9
-0.199761 0.77133 0.848076 52 46 39
-0.104072 0.795851 0.824579 36 36 36
0.246234 0.563191 1.74325 174 108 68
0.11983 0.758823 1.40516 138 72 22
0.0944291 0.805292 1.43624 152 96 49
-0.444875 0.704678 0.995149 40 36 34
-0.440184 0.808343 1.00966 13 9 6
-0.444917 0.812641 1.0165 16 12 9
-0.501929 0.819592 1.02601 84 74 68
0.191889 0.554594 1.43468 121 59 31
0.199571 0.60409 1.38155 108 76 54
0.0810125 0.719976 1.32512 138 60 10
-0.419606 0.802229 1.044 81 76 70
0.283404 0.610389 1.25094 114 112 106
0.326579 0.683907 1.25072 112 60 28
0.543661 1.04511 1.55364 108 98 90
-0.336006 0.224233 0.921827 192 180 162
0.257658 0.64624 1.26617 116 86 67
-0.380347 0.454912 0.826122 51 48 46
-0.495984 0.696003 0.986614 219 210 198
-0.0574824 0.703884 0.928654 52 48 42
-0.094089 0.364759 0.814702 30 27 22
0.380339 0.685652 1.2756 154 88 44
-0.200332 0.463639 0.760616 18 16 12
0.329249 0.748571 1.30745 110 56 26
-0.0895774 0.609897 0.839493 231 217 190
-0.204256 0.346222 0.72705 174 156 95
-0.419882 0.805683 1.02359 2 0 0
-0.325685 0.794221 0.984329 65 62 60
-0.448361 0.726695 1.01355 104 96 88
-0.113753 0.190908 0.854151 82 82 76
0.0173775 0.281559 0.966274 78 66 55
0.0716654 0.478456 1.23574 149 72 2
0.13377 0.692361 1.37671 162 116 72
-0.213813 0.411687 0.740785 55 48 35
0.111196 0.724087 1.3724 186 117 64
0.102541 0.716772 1.32856 210 124 34
-0.353962 0.46975 0.786584 60 56 52
-0.0669976 0.731226 0.976056 54 47 41
-0.494976 0.812565 1.01386 148 140 131
4.91466e-05 0.172903 0.823871 94 83 69
0.497334 0.591019 1.31173 110 59 38
0.103467 0.790027 1.4109 62 12 0
0.537611 1.02781 1.88435 144 75 24
-0.367833 0.691848 0.962348 37 36 31
-6.98998e-05 0.263194 0.889256 100 96 85
0.225447 0.529148 1.39877 151 88 56
0.244811 0.76217 1.35503 60 25 8
-0.359805 0.462043 0.772564 23 20 16
0.479819 0.961308 1.56577 84 48 30
-0.448445 0.719626 1.01995 171 163 155
0.016627 0.231342 0.805241 72 66 58
0.00621338 0.241614 0.790153 42 29 24
0.0019537 0.504464 1.14419 74 65 56
0.191808 0.984379 1.42757 50 48 44
-0.451961 0.762905 0.935857 48 42 36
-0.439377 0.807822 1.00165 2 0 0
0.207013 0.956578 1.55376 156 146 130
0.124686 0.986158 1.53227 4 2 2
0.442935 0.499109 1.37787 102 53 24
0.103547 0.664569 1.38064 140 52 4
0.0612455 0.688116 1.35965 174 130 104
-0.153452 0.937149 1.1696 39 36 34
0.269523 0.550894 1.49132 159 102 69
-0.253897 0.71762 1.94818 122 113 105
0.10587 0.708462 1.30372 212 118 36
0.555079 0.775631 1.01381 105 99 90
-0.40595 1.10538 1.56468 62 52 44
-0.433537 0.756309 0.94289 128 119 112
-0.43603 1.13652 1.3062 64 64 64
-0.698074 0.431782 2.08915 42 38 30
-0.196076 0.851077 1.45815 9 3 1
0.193284 0.870277 1.19458 12 10 10
-0.436067 1.13434 1.30273 60 60 60
-0.649454 0.615126 1.28422 139 126 114
-0.447255 0.769809 0.961671 180 172 164
0.127552 0.677409 1.32921 158 76 6
0.0604775 0.700351 1.37464 124 56 12
0.510766 0.738255 1.00348 100 90 82
-0.635025 0.421502 1.80835 126 114 102
0.578957 0.537377 1.002 64 34 24
0.515242 0.660704 1.20599 94 47 22
-0.429751 0.807975 0.957846 14 12 11
-0.440022 0.777185 0.948931 15 12 12
-0.252027 1.1268 1.39578 34 34 34
0.0315397 0.501041 1.35372 196 168 142
-0.603804 0.642787 1.2477 18 13 12
-0.495785 0.660999 1.02276 74 70 57
0.0874985 0.525129 1.25825 202 144 84
-0.405852 0.390063 0.9231 114 110 100
0.498158 0.593285 1.31492 118 68 46
0.0914969 0.757473 1.39819 128 44 1
-0.452843 0.812066 1.03488 178 172 165
-0.469123 0.796679 0.998461 144 136 131
-0.40196 0.790724 0.929242 59 58 58
-0.232151 0.797387 0.686876 64 58 47
0.71332 1.16765 2.48287 52 28 16
0.116903 0.702598 1.36361 164 84 2
0.108449 0.732272 1.36818 202 118 54
-0.377066 0.685108 0.964967 38 34 26
-0.333618 0.663857 0.913647 42 38 34
-0.0500378 0.695197 0.907658 73 66 60
-0.412806 0.787076 1.00683 148 142 136
-0.333167 0.777783 0.848006 47 45 44
-0.0650338 0.358151 0.762877 31 28 22
0.167238 0.62842 1.41055 154 144 134
0.563644 0.644511 1.38842 214 200 180
0.195817 0.674063 1.321 94 76 50
-0.396086 0.436917 0.824316 101 92 81
0.110165 0.704977 1.35533 151 68 5
0.186829 0.716935 1.34139 105 88 68
-0.437822 0.614971 0.993104 52 48 45
0.476048 0.901397 1.44869 86 52 34
-0.312464 0.777639 0.818528 44 43 41
-0.283548 0.793165 0.792293 30 30 30
0.327383 0.51561 1.48924 155 112 84
0.416738 0.554467 1.37858 102 58 34
0.0942398 0.516181 1.25689 156 96 32
0.0912232 0.516908 1.24843 193 112 28
-0.0663851 0.362558 0.771994 27 24 18
-0.313 0.420369 0.740387 32 26 21
-0.362806 0.789115 0.882599 44 42 41
-0.342176 0.236012 0.942522 78 73 64
0.440341 0.529343 1.45217 90 34 2
0.21079 0.945848 1.5264 157 143 130
0.464613 0.928391 1.41999 132 112 96
-0.423017 0.811142 1.02939 10 8 6
0.495864 0.596433 1.32691 108 58 36
0.21691 0.678445 1.36061 178 153 114
0.22721 0.663155 1.30116 72 56 35
-0.365925 0.43083 0.830488 252 243 218
-0.397394 0.683887 0.988914 202 194 182
-0.0710501 0.793376 0.859284 36 36 36
-0.194184 0.159063 0.971006 116 110 98
0.195642 0.614176 1.4093 117 87 72
0.545019 0.913733 1.78888 94 50 22
-0.326259 0.679099 0.931013 114 111 101
-0.0374823 0.830754 0.925197 0 0 0
-0.313086 0.768878 0.795928 6 4 6
-0.267672 0.297816 0.805567 4 3 1
0.292054 0.711023 1.31066 180 152 108
0.484999 0.8825 1.50004 122 92 74
-0.345006 0.749497 0.972724 190 178 170
-0.312803 0.768335 0.950341 83 80 74
-0.105166 0.196918 0.936332 129 120 110
-0.234798 0.18578 0.886393 88 77 65
0.0104063 0.443353 0.922696 118 110 99
0.0740004 0.692163 1.33921 154 87 4
0.0921442 0.746083 1.3777 110 24 2
0.123076 0.750858 1.35637 97 60 40
0.343946 0.754488 1.32315 100 54 34
0.0800449 0.963265 1.49986 128 119 112
0.155665 0.963739 1.43064 47 47 46
-0.330338 0.664327 0.911175 44 41 34
-0.102125 0.195283 0.928332 152 142 132
-0.0773488 0.192765 0.831732 126 93 98
0.0242711 0.270024 0.924932 66 54 42
0.424819 0.672338 1.35782 37 1 0
-0.324264 0.793729 0.83901 54 52 50
-0.279909 0.790732 0.79038 48 47 48
-0.422651 0.376511 0.944422 162 159 140
0.0689018 0.734561 1.35699 103 52 12
-0.431449 0.63699 1.00904 96 91 84
0.509402 1.17037 1.83956 133 122 108
-0.51705 0.698456 1.01844 124 116 104
-0.401319 0.389329 0.896177 56 53 42
0.557812 0.598026 1.28825 192 180 158
0.136882 0.72968 1.38601 230 208 192
0.451747 1.03511 1.49955 40 36 30
-0.227427 0.787567 0.677414 46 42 33
0.0109557 0.409312 0.966154 183 174 158
0.106742 0.797568 1.43335 141 72 25
0.437668 0.887724 1.40477 135 75 46
-0.495642 0.694788 0.986933 210 204 191
0.559473 1.03406 1.51662 102 96 84
0.544726 1.07466 1.51728 20 16 12
-0.228916 0.790363 0.681028 32 28 20
-0.381198 0.24029 0.930202 72 63 54
-0.387379 0.349874 0.876377 121 130 110
0.00205933 0.451212 1.01188 88 80 70
-0.049217 0.684262 0.897287 50 46 40
-0.502425 0.839265 1.02183 159 150 142
0.551192 0.569437 1.21444 192 172 148
-0.042309 0.60195 0.773022 162 148 134
-0.108819 0.685194 0.815126 147 136 124
-0.429557 0.816801 0.963389 6 5 4
-0.248062 0.176844 1.09396 142 132 116
0.523828 0.547691 1.35229 173 126 90
0.157397 0.729209 1.42541 177 158 134
-0.411726 0.804249 1.04683 42 38 31
-0.114341 0.881748 1.10386 2 1 0
-0.0856348 0.237798 0.805932 68 42 44
0.10928 0.637091 1.3325 168 132 110
-0.339317 0.425692 0.795501 176 168 152
-0.100027 0.651647 0.830985 71 58 48
-0.183846 0.811406 0.794272 55 54 54
0.440633 0.665594 1.36913 228 186 152
-0.240695 0.368338 0.697613 98 100 94
-0.486183 0.6047 0.96919 178 170 156
-0.381404 0.424119 0.815777 129 120 108
-0.374579 0.414677 0.785741 192 186 174
-0.248413 0.295171 0.770359 69 60 36
-0.437005 0.815364 1.04849 140 132 126
-0.238969 0.778258 0.891533 94 92 83
-0.417274 0.449526 0.861325 224 214 201
0.518916 0.926315 1.67172 157 85 24
-0.344157 0.265589 0.855898 192 182 168
0.443558 0.521024 1.46769 154 114 84
-0.267207 0.371121 0.743715 121 124 113
0.144062 0.724394 1.34799 136 69 18
-0.364069 0.520793 0.895012 189 176 159
-0.46939 0.741576 1.01929 58 56 49
-0.384812 0.774689 0.996595 157 153 144
0.318443 0.985853 1.17373 32 30 24
-0.261302 0.326794 0.723334 32 32 21
-0.102032 0.71905 0.916836 68 62 56
0.345545 0.399943 1.13591 230 186 160
-0.0404279 0.401967 1.1525 51 44 34
0.544992 0.582833 1.46987 158 107 69
-0.0123867 0.430976 1.03497 146 138 125
0.01203 0.415019 0.971828 202 194 176
0.0298543 0.481283 1.13962 210 194 167
0.44828 0.743822 1.56891 250 234 206
0.54414 0.881516 1.68918 102 68 48
0.112821 0.714778 1.34792 220 170 122
0.115158 0.726961 1.37168 209 145 60
0.13497 0.670426 1.23737 105 37 0
0.104689 0.734179 1.37281 208 129 56
0.248706 0.803478 1.42473 62 29 6
-0.115037 0.670528 1.1672 210 205 196
0.50921 0.942151 1.64253 100 78 56
-0.37442 0.595674 0.987351 108 105 100
-0.117527 0.726404 1.157 184 178 168
-0.150459 0.796193 1.06013 20 18 16
-0.47352 0.811887 0.973637 118 111 103
-0.19648 0.768179 0.841508 157 148 138
-0.0119895 0.796755 0.823735 64 62 62
-0.223951 0.776861 0.70764 46 44 46
-0.223862 0.201375 0.930514 79 76 72
0.52711 0.467557 1.15055 158 107 69
0.555994 0.610903 1.48439 136 94 65
-0.367488 0.370891 0.863017 73 77 62
0.464046 0.740529 1.56128 242 208 180
0.15516 0.606308 1.2002 141 106 76
0.139101 0.677174 1.23843 140 60 4
0.197142 0.686247 1.24737 116 60 52
0.248648 0.801944 1.42308 66 32 10
-0.368732 0.590349 0.975739 108 104 98
-0.4885 0.626693 0.992728 130 124 114
-0.073283 0.655741 1.0133 150 144 134
-0.503256 0.708773 1.00699 110 105 94
-0.227642 0.757686 0.863557 76 76 73
-0.351374 0.725351 0.818414 6 6 4
-0.0392858 0.227293 0.951027 158 144 132
-0.0211667 0.272076 0.960961 122 116 105
0.517536 0.502899 1.23782 224 168 128
0.539292 0.54057 1.35283 154 109 74
-0.394045 0.386013 0.920769 114 125 108
0.197952 0.557564 1.25621 178 172 154
-0.00553876 0.458796 1.01051 103 96 86
-0.299736 0.406109 0.816766 46 49 38
0.116281 0.673427 1.32471 149 62 4
0.24864 0.803961 1.42638 66 32 9
-0.113088 0.667575 1.16319 214 208 198
0.155129 0.741223 1.29801 56 26 18
-0.414809 0.656228 1.03508 72 67 58
-0.0846189 0.628887 0.927618 145 139 128
-0.485214 0.686219 0.973107 213 208 196
-0.325727 0.685602 0.949088 110 107 100
-0.390137 0.769835 0.989977 189 183 174
-0.12007 0.825634 0.872551 28 28 26
0.00148298 0.190493 0.816887 34 26 22
-0.0122408 0.27898 0.953466 56 50 40
0.288312 0.453231 1.3705 206 156 112
0.00510676 0.358182 1.00006 158 150 138
-0.253335 0.31287 0.83285 5 3 3
0.517787 0.506723 1.24875 212 159 118
0.555036 0.586353 1.47977 150 110 84
0.028552 0.479995 1.14265 214 198 170
0.259672 0.678066 1.39831 126 120 110
-0.320531 0.423659 0.85594 36 40 30
-0.36936 0.591206 0.965969 74 72 64
-0.394038 0.670417 0.991738 52 47 42
-0.299163 0.65789 0.900221 122 118 111
-0.479415 0.81625 0.983149 140 133 125
-0.351024 0.798059 0.879295 35 35 35
0.00957486 0.223 0.796931 62 44 44
-0.0429881 0.290548 1.00826 26 20 15
-0.0450369 0.308133 1.04384 100 96 88
-0.028099 0.403838 1.11729 48 40 31
0.540028 0.551477 1.37413 142 104 71
-0.209167 0.296029 0.742897 177 160 96
0.537395 0.493132 1.1629 154 116 88
-0.0478127 0.502785 1.18735 128 121 106
0.147434 0.689414 1.58438 89 82 70
-0.00931357 0.460326 1.01465 148 138 126
-0.0597453 0.573824 1.07731 187 184 176
0.532108 0.715538 1.33135 206 196 174
-0.0682909 0.57374 1.07179 152 150 143
0.189483 0.685717 1.26733 242 211 191
-0.266006 0.644065 0.828265 132 129 122
-0.16728 0.637685 0.810081 103 96 89
-0.388835 0.793127 1.02907 198 192 186
-0.0389285 0.41589 1.15279 46 38 30
-0.328395 0.376207 0.857081 40 40 31
-0.358961 0.445786 0.852717 210 200 184
0.249619 0.789995 1.38784 72 35 15
0.515843 0.930721 1.64637 192 146 92
-0.495247 0.609526 1.01262 203 198 184
-0.364721 0.588688 0.959638 72 69 62
-0.286372 0.622285 0.887516 52 50 45
-0.413038 0.668757 0.981748 31 28 21
-0.520874 0.70394 1.02579 192 186 176
-0.301092 0.659864 0.898467 124 120 112
-0.342178 0.741986 0.939855 156 152 146
-0.332941 0.730801 0.838208 3 2 1
-0.171037 0.711132 0.579959 32 30 24
0.281277 0.493863 1.52294 144 82 47
-0.291816 0.276168 0.846347 24 18 15
-0.260698 0.380986 0.788948 55 115 75
0.46303 0.72322 1.53693 202 170 142
0.537933 0.763201 1.43717 214 208 187
-0.346218 0.433483 0.769757 69 68 64
-0.336319 0.455206 0.784696 82 76 66
-0.393001 0.613533 1.01151 72 69 62
-0.314787 0.664896 0.90303 130 126 117
-0.168007 0.823831 1.09349 0 0 0
-0.117884 0.806416 1.02717 1 1 0
-0.107728 0.8551 1.01566 40 36 34
-0.203108 0.740422 0.810609 24 22 20
-0.462532 0.900907 1.04041 2 2 1
0.000321126 0.193612 0.824862 162 148 136
-0.264731 0.273565 0.909736 90 88 82
-0.311483 0.288097 0.881668 15 12 9
0.26119 0.430274 1.10873 146 90 52
0.572722 0.705331 1.79149 98 39 16
-0.393947 0.389596 0.921482 134 131 119
-0.300592 0.372182 0.840098 24 29 18
-0.313205 0.42464 0.826068 29 28 27
-0.472364 0.502529 0.994575 196 190 171
0.529988 0.851081 1.60808 218 191 172
0.154378 0.7413 1.37768 33 24 12
0.146971 0.687308 1.25689 116 57 16
0.480046 0.920437 1.38988 61 52 42
-0.407967 0.791914 1.0242 56 51 48
-0.22436 0.732729 0.890566 24 23 22
-0.317778 0.211217 0.900455 98 92 79
0.133256 0.99422 1.47152 78 76 76
0.621563 1.0794 1.52612 62 54 45
-0.316173 0.210024 0.897695 114 108 92
-0.316319 0.210032 0.896735 132 124 109
-0.306783 0.222724 0.847043 68 66 54
-0.304879 0.211308 0.841037 170 159 144
0.509985 1.04199 1.4777 42 40 36
-0.0193342 0.390275 0.90855 16 12 8
-0.358995 0.354947 0.833531 65 63 52
-0.266572 0.363415 0.727725 40 42 32
0.237822 0.668221 1.28997 56 43 26
-0.245578 0.791312 0.745821 56 56 56
0.119361 0.670044 1.35454 208 115 26
0.415711 0.509986 1.41744 136 73 34
-0.369078 0.780939 1.02154 112 106 98
0.013268 0.276173 0.960794 96 86 74
-0.000140519 0.24348 0.877729 40 32 25
0.319259 0.414025 1.09479 142 86 53
0.466988 0.608948 1.26576 212 172 145
-0.508667 0.517686 1.0244 136 129 118
-0.493545 0.565298 1.00723 36 28 20
-0.417202 0.634699 1.05844 66 64 56
-0.389767 0.634057 0.987727 59 53 46
-0.40465 0.715451 1.01919 61 58 50
-0.313178 0.674185 0.927602 124 120 112
-0.23593 0.613018 0.765726 126 123 117
0.0925127 0.401853 0.367566 126 120 111
0.0503983 0.474626 0.462098 3 2 0
-0.404566 0.794542 0.991658 6 4 3
-0.467879 0.785418 0.967618 66 58 51
-0.403666 0.764512 0.907328 64 64 64
0.30608 0.421806 1.10336 77 24 0
-0.407021 0.478806 0.952978 110 104 92
0.0940135 0.734284 1.46539 137 54 0
-0.133518 0.676931 1.32276 82 79 70
0.338168 0.813032 1.44934 106 60 34
-0.315713 0.527199 0.87829 81 78 70
-0.470087 1.2845 2.32898 10 8 3
-0.38846 0.680688 0.973637 150 145 132
-0.466583 0.668696 0.940955 204 197 184
0.0528153 0.465046 0.456454 2 2 0
0.0471891 0.479403 0.470168 8 8 4
-0.325027 0.757099 0.950609 12 9 6
-0.095325 0.849519 1.00429 40 40 38
-0.00761284 0.236742 0.851205 52 38 38
0.00496008 0.357262 1.00113 122 114 102
-0.536296 0.541904 1.0963 57 50 44
0.532887 0.738741 1.42747 96 54 34
-0.0785879 0.604135 1.14777 180 177 168
0.15611 0.550299 1.00413 206 122 32
0.035622 0.859545 1.64733 167 78 2
-0.351855 0.459635 0.762295 98 90 78
-0.430332 0.608303 1.07048 168 162 150
-0.432818 0.649616 1.09098 72 71 63
-0.400702 0.711732 1.01381 66 62 55
-0.496634 0.723932 0.994934 155 148 137
0.550563 1.1393 1.60466 8 3 2
0.0717449 0.433433 0.403303 3 2 1
-0.214731 0.916358 1.21983 16 15 12
-0.151705 0.781149 0.98006 164 152 142
-0.166141 0.901275 1.15742 38 37 36
-0.399811 0.790065 0.98288 6 3 2
-0.0905651 0.837938 0.987328 41 40 37
-0.0117973 0.240234 0.864311 65 48 48
-0.292822 0.254378 0.859852 62 59 51
-0.212446 0.259979 0.844736 67 64 60
0.533875 0.752495 1.45474 95 54 32
-0.382207 0.591094 1.01152 56 52 44
-0.435386 0.648343 1.10642 104 101 92
-0.225389 0.893096 1.53186 11 7 2
0.07881 0.415544 0.384939 26 25 21
0.107878 0.374867 0.312258 6 5 3
-0.205915 0.902437 1.19429 8 8 5
-0.28142 0.672554 0.74414 25 22 21
-0.100566 0.859254 1.02678 39 38 35
-0.097079 0.139598 0.784756 42 37 32
0.0276536 0.173944 0.725445 174 154 146
-0.267488 0.28228 0.821989 68 64 58
0.534091 0.480939 1.1827 120 80 57
0.195863 0.567353 1.27696 38 31 23
0.528901 0.684313 1.32427 152 125 101
-0.474813 0.499214 0.989847 52 45 40
-0.413194 0.486584 0.955866 199 188 170
-0.4266 0.638415 1.0877 102 100 90
-0.313121 0.673702 0.923017 130 126 118
0.130271 0.334906 0.2434 13 11 10
-0.155585 0.806883 1.05658 4 3 1
0.02541 0.518878 0.534996 2 0 0
0.034035 0.59833 0.625684 1 0 0
-0.401121 0.808324 0.963347 10 8 10
0.0180178 0.702135 0.727959 2 2 0
0.027969 0.173826 0.724903 174 154 146
-0.307209 0.283365 0.87571 21 16 13
-0.284896 0.291034 0.854963 62 57 52
0.293993 0.421956 1.14188 140 86 56
-0.418059 0.486757 0.976495 100 96 84
-0.429004 0.536625 0.957607 112 104 90
-0.430219 0.574193 1.01878 192 178 161
-0.133154 0.744663 1.2323 9 4 1
-0.428019 0.708124 1.07104 35 35 31
-0.298082 0.676243 0.887789 128 125 116
0.0962951 0.396714 0.359039 118 112 104
0.0322264 0.507663 0.51724 2 0 0
-0.359148 0.798287 1.02021 30 26 24
0.296213 1.20805 1.51924 20 19 17
-0.0800775 0.195682 0.778348 136 102 106
0.53832 0.520846 1.27591 147 109 79
-0.321691 0.431424 0.850615 20 22 20
0.541563 0.787677 1.55553 126 86 62
0.216476 0.693949 1.37206 78 64 38
0.520013 0.77703 1.44501 216 184 162
-0.394701 0.572474 0.996828 194 188 176
-0.408697 0.615647 1.06096 96 92 84
0.628322 1.13224 1.61689 47 41 35
-0.346352 0.756013 0.973247 190 184 173
-0.314923 0.749176 0.930957 23 19 18
-0.138224 0.841373 1.0638 1 0 0
-0.336995 0.725857 0.86336 11 9 10
0.458313 0.657348 1.37572 238 208 181
0.0353859 0.942328 1.85032 115 61 16
-0.393752 0.683489 0.98278 128 123 110
-0.351803 0.660148 0.921871 61 57 50
0.105807 0.365557 0.343304 169 154 140
-0.331434 0.754998 0.956153 46 42 37
-0.055374 0.695321 0.832741 1 2 0
0.108196 0.73006 1.37819 162 97 38
-0.369793 0.394111 0.816135 148 142 126
0.175503 0.759996 1.40589 128 80 71
-0.46363 0.840475 1.05543 5 4 3
-0.260054 0.254289 0.7779 20 16 15
-0.0684966 0.569182 1.03772 96 91 83
-0.262968 0.705119 0.700597 5 4 6
-0.0411373 0.235413 0.968896 154 133 125
-0.100797 0.618222 1.15049 77 72 64
-0.163312 0.730079 1.42578 224 217 204
0.548527 0.648426 1.1194 74 55 40
0.242874 0.806093 1.43881 62 26 6
-0.0309008 0.494103 1.10223 122 118 108
-0.228041 0.289398 0.736237 238 213 136
-0.581276 1.11042 3.22565 44 34 30
-0.180243 0.370218 0.659337 158 136 75
-0.0917096 0.616925 0.852991 226 214 192
-0.197434 0.286275 0.679871 221 198 112
-0.206393 0.743457 1.76637 188 178 166
0.63947 0.831511 1.70718 147 130 113
-0.235049 0.17846 0.66502 19 16 10
-0.441227 0.426839 0.969166 82 80 70
-0.0934024 0.61842 1.18591 66 64 58
-0.24595 0.193925 0.896688 176 170 154
-0.201426 0.152162 0.658674 123 116 106
-0.258406 0.190964 0.710412 28 26 20
-0.433124 0.313404 1.02371 172 166 154
-0.0580613 0.162515 0.266708 72 70 58
-0.181476 0.252136 0.493584 76 74 65
-0.110871 0.630338 1.19291 63 59 49
-0.371423 0.249242 0.928605 19 16 10
-0.123314 0.735278 1.17217 125 122 112
-0.181197 0.159093 0.782104 187 176 162
-0.156546 0.146919 0.714719 107 98 85
-0.078511 0.262091 1.08056 194 178 167
-0.390146 0.25947 0.973529 28 26 20
-0.0949213 0.127533 0.378879 175 168 154
0.537008 0.547505 1.35274 130 86 54
0.0719935 0.0709986 0.0298749 64 63 51
-0.094464 0.62597 1.20083 126 124 118
-0.315349 0.424228 0.689049 65 59 48
-0.0910245 0.938766 1.11492 4 3 2
-0.161284 0.140645 0.797729 34 30 24
-0.385183 0.258133 0.96458 23 20 16
-0.200767 0.17043 0.597621 32 28 24
-0.0530753 0.459189 1.19226 98 90 83
-0.362005 0.637094 0.926258 38 34 30
-0.113296 0.219016 0.868852 141 114 116
-0.167853 0.112997 0.770598 92 86 76
-0.188745 0.152008 0.609435 191 180 166
-0.0501994 0.520157 1.17709 151 144 134
-0.129506 0.213499 0.398646 73 72 60
-0.215084 0.275395 0.549367 198 188 174
-0.34544 0.599702 0.913566 40 38 36
-0.301737 0.694043 0.773812 1 1 1
-0.167092 0.113406 0.773517 80 74 63
-0.0272881 0.192967 0.895712 37 32 29
-0.172353 0.135687 0.598909 194 184 171
-0.0931733 0.125216 0.373656 194 184 171
-0.17315 0.220534 0.621551 63 59 56
-0.376506 0.458432 0.831086 5 5 5
-0.261301 0.432858 0.698909 223 212 198
-0.207761 0.787991 1.03395 128 118 108
-0.268094 0.735941 0.812703 36 34 30
-0.222358 0.188999 0.895842 32 30 24
0.418981 0.537923 1.49194 170 102 62
0.440035 0.46471 1.22129 189 157 132
0.0963584 0.438069 1.22969 156 71 0
0.51401 0.50813 1.25892 232 173 136
0.193229 0.556768 1.44373 154 90 60
0.0928035 0.480319 1.25564 152 68 0
0.00622045 0.460716 1.13198 98 86 66
0.497966 0.601123 1.32883 120 69 48
-0.0962022 0.37883 0.849355 34 18 18
-0.0245141 0.576524 1.32047 132 122 106
0.169159 0.618912 1.38178 120 111 100
-0.266912 0.353313 0.778214 34 34 15
0.471292 0.617562 1.18175 147 84 48
0.0975332 0.678168 1.35703 202 118 46
0.0684835 0.682435 1.35091 186 143 114
0.0953883 0.717874 1.39068 133 52 0
0.107053 0.715469 1.38573 148 62 3
0.0999713 0.745087 1.43003 187 100 36
0.135078 0.742239 1.39845 154 112 88
0.125768 0.75691 1.43429 50 6 0
0.0718508 0.75239 1.42393 194 109 42
0.0917059 0.722898 1.35526 178 89 25
-0.380998 0.42298 0.792087 61 54 44
0.076867 0.742816 1.34878 150 92 23
0.0900359 0.790543 1.43327 95 44 12
0.191888 0.854288 1.47659 86 50 44
-0.387229 0.565769 0.989393 100 90 78
0.462381 0.855278 1.35351 97 75 59
0.473398 0.983552 1.48294 15 9 4
0.538546 1.02237 1.43753 18 14 10
0.11776 0.98016 1.43377 50 49 48
-0.109661 0.685577 0.887678 114 102 91
0.364806 0.904562 1.12783 57 56 54
0.326459 0.893457 1.08103 56 54 54
-0.372952 0.795523 1.04816 43 34 24
0.348105 0.979559 1.17385 17 14 13
-0.219328 0.740462 0.830947 83 80 76
-0.0530716 0.866213 0.990711 4 3 2
-0.410812 0.801784 0.943864 58 56 57
-0.506887 0.846788 1.03429 82 76 68
-0.04432 0.902983 1.01837 45 45 44
-0.336042 0.775893 0.836691 52 48 48
-0.305897 0.764069 0.791768 60 59 58
-0.191135 0.174418 0.948308 90 88 81
-0.00315463 0.250388 0.82787 70 47 42
0.418767 0.538211 1.49277 170 102 62
0.0956474 0.424569 1.21124 192 112 24
0.367323 0.534195 1.38902 82 34 14
0.108836 0.442907 1.18359 156 92 32
0.325566 0.493151 1.26409 148 82 50
-0.241368 0.287446 0.758012 102 90 56
-0.258531 0.340884 0.764918 62 54 22
0.276023 0.617949 1.28807 114 113 116
0.428622 0.616487 1.23031 208 169 134
0.441249 0.639282 1.2783 130 81 49
0.50322 0.690353 1.2905 152 111 88
0.25463 0.681052 1.30908 108 83 46
0.116643 0.696939 1.36462 190 110 36
0.107938 0.698266 1.36628 119 42 0
0.0982266 0.730509 1.35605 197 116 38
0.0874416 0.723293 1.33838 163 71 0
0.0689184 0.72627 1.33696 224 198 185
0.0806834 0.723581 1.32459 126 43 0
0.0921571 0.782117 1.4089 140 95 49
0.453524 0.891547 1.34311 61 27 12
0.48177 1.02514 1.56145 13 6 2
0.205135 0.981717 1.41623 44 43 42
-0.0582124 0.647786 0.850413 154 143 134
0.328181 0.920279 1.12688 53 52 51
0.00147786 0.789347 0.875878 96 89 83
-0.479204 0.808964 0.968778 114 108 98
-0.0157042 0.800993 0.856614 40 40 40
-0.307695 0.770793 0.80093 58 56 58
-0.062704 0.1784 0.776754 102 78 80
0.26728 0.497508 1.53822 192 138 99
0.281078 0.505754 1.47922 156 82 36
0.426035 0.524197 1.45075 194 169 142
0.447425 0.562312 1.58505 152 120 100
0.414791 0.50413 1.39817 170 102 62
0.366431 0.514384 1.26775 158 88 37
0.635778 0.867375 1.77875 68 46 34
-0.256312 0.371351 0.726536 108 110 100
0.290893 0.701223 1.32563 171 148 115
-0.341223 0.408141 0.766364 206 200 182
0.124435 0.749964 1.39544 98 35 2
0.0944141 0.772834 1.40507 122 48 2
0.214743 0.939532 1.53589 166 143 130
0.486486 1.04535 1.61961 73 64 54
0.311835 0.882038 1.3374 61 36 25
0.487944 1.02356 1.56556 126 118 107
0.357349 0.892563 1.32996 102 56 36
-0.142151 0.558016 0.759768 95 92 84
-0.0895679 0.639256 0.798468 188 174 157
-0.162168 0.633167 0.799335 120 112 102
-0.166567 0.650282 0.82455 156 146 132
-0.50871 0.733716 1.02071 119 112 102
-0.431457 0.807547 1.03961 190 184 178
-0.495361 0.829633 1.00517 122 116 107
-0.00131797 0.237568 0.851542 78 50 48
-0.00590339 0.261362 0.831928 134 94 96
0.412813 0.495111 1.37153 170 102 62
0.073491 0.433305 1.18184 156 72 8
-0.256794 0.336591 0.764285 123 115 63
-0.277473 0.354948 0.792151 52 51 40
0.261295 0.656925 1.28339 132 112 94
0.124357 0.764111 1.39459 38 9 0
0.0947711 0.796709 1.41563 178 128 87
0.247915 0.857762 1.44207 118 85 64
-0.448589 0.643006 1.04341 218 214 203
-0.487545 0.602403 0.961568 175 166 152
0.122784 0.971348 1.44332 12 10 5
0.260419 1.00568 1.39177 37 36 36
-0.504024 0.703814 1.00552 218 212 200
0.416179 0.956259 1.24358 8 8 6
-0.108354 0.759127 0.93948 35 28 26
-0.203077 0.784461 0.867903 46 40 34
-0.110855 0.211634 0.85458 116 92 92
0.00347632 0.248519 0.787153 131 91 94
0.439412 0.571031 1.57843 146 104 79
0.376676 0.505346 1.1618 153 78 30
-0.00950054 0.483329 1.02127 79 72 66
0.489451 0.782381 1.4096 71 24 2
-0.34527 0.438376 0.816881 82 72 64
0.526211 0.909093 1.65538 96 70 54
0.0695321 0.746771 1.36521 174 119 74
0.446301 0.86798 1.38139 64 19 1
-0.502663 0.681819 0.988097 196 187 174
-0.388885 0.815517 1.07685 171 164 156
-0.24256 0.803805 0.909231 52 51 45
0.36234 0.484747 1.25415 100 50 30
0.42038 0.620419 1.59977 126 72 52
0.0874736 0.450275 1.15377 148 72 6
0.0698058 0.534378 1.27842 184 98 10
0.0112811 0.47016 1.10499 110 102 89
0.174346 0.590048 1.34836 198 177 153
-0.257611 0.34074 0.76503 80 72 36
0.224167 0.65943 1.26906 36 32 29
-0.288471 0.387045 0.732022 88 85 72
0.184875 0.727991 1.34569 231 217 198
0.0807534 0.712279 1.3109 142 58 8
0.299666 0.774379 1.36048 84 52 28
0.346128 0.773564 1.32071 98 46 14
-0.392355 0.568667 0.993187 217 208 196
-0.401826 0.639268 0.995572 215 206 193
-0.409987 0.677341 1.01161 217 201 188
-0.105813 0.716006 0.867937 170 156 137
-0.231698 0.691358 0.810952 72 70 68
-0.230375 0.800827 0.692882 24 22 15
-0.281283 0.169059 1.00375 84 77 68
-0.182732 0.1519 0.85353 28 26 20
0.0730271 0.518833 1.23515 178 94 7
-0.0424949 0.383217 0.883619 139 90 94
0.195953 0.595013 1.35947 97 56 31
0.187408 0.605766 1.33753 106 105 100
0.169011 0.631692 1.35572 65 60 52
0.561451 0.692212 1.36324 76 48 35
0.374607 0.702038 1.31775 154 84 42
0.167795 0.736678 1.40751 126 99 62
0.502622 0.81094 1.4468 92 66 50
-0.322235 0.424611 0.763764 74 68 60
-0.374262 0.558235 0.96317 68 62 52
0.144701 0.989722 1.5904 200 190 176
0.46358 1.01677 1.41428 40 38 32
-0.152468 0.613971 0.768625 103 96 86
-0.472476 0.678118 0.946366 82 76 66
-0.3171 0.186069 1.12397 78 72 62
-0.348528 0.254387 0.85981 42 39 36
0.428543 0.562943 1.52344 104 34 6
0.434403 0.538851 1.3901 140 79 44
0.201228 0.585107 1.51603 158 92 50
-0.225907 0.276823 0.715924 184 166 96
-0.0737244 0.375692 0.794165 18 15 12
-0.247182 0.339852 0.721526 71 127 82
0.108124 0.665039 1.38838 134 61 28
0.430494 0.675126 1.31007 21 2 4
-0.373469 0.394278 0.825213 122 116 100
-0.262427 0.366264 0.730091 126 130 119
-0.269452 0.37942 0.737678 6 7 4
0.237628 0.670585 1.29223 50 41 30
-0.253024 0.381254 0.725667 88 90 80
-0.296644 0.394627 0.756381 88 86 72
-0.04593 0.637308 1.22033 146 138 127
0.50072 0.889241 1.59343 164 92 36
0.447736 0.809309 1.25276 226 198 184
0.302475 0.845046 1.27854 6 0 0
-0.0605572 0.602612 0.866531 169 156 144
0.550282 1.03686 1.52713 160 152 141
0.467016 1.01179 1.40706 38 36 30
-0.215074 0.654974 0.74834 70 68 65
-0.0264063 0.906467 1.03778 3 2 0
0.224406 -0.159833 -0.668866 186 107 57
0.111749 0.334216 0.713401 186 112 18
-0.642614 0.903566 1.35034 117 110 99
-0.503813 0.622752 1.02574 218 210 196
0.695045 0.956067 2.19428 204 188 168
0.115567 0.495368 1.31213 150 106 44
0.4364 0.776628 1.3795 34 4 2
0.112666 0.754833 1.4038 171 92 36
0.109804 0.752515 1.38842 108 27 2
0.135709 0.781046 1.3982 71 46 38
-0.250902 0.416877 0.654645 78 70 60
-0.520316 0.842359 1.07081 90 82 74
-0.356819 0.238526 0.97522 196 184 169
-0.345226 0.233149 0.882884 14 10 6
-0.356666 0.271299 0.881295 38 35 28
0.0683889 0.449986 1.26578 138 96 48
-0.263202 0.356945 0.742458 72 74 66
0.330982 0.691249 1.2857 72 26 4
-0.513789 0.634069 1.02906 183 174 162
-0.423945 0.618754 0.974257 114 110 104
-0.413004 0.658346 1.03563 224 212 204
-0.448665 0.70174 0.979845 85 82 78
-0.505523 0.72689 1.00986 186 179 168
0.281369 0.955253 1.2323 55 54 52
-0.0960717 0.847151 1.05749 100 92 83
-0.434055 0.819465 1.05577 7 4 2
-0.111646 0.193903 0.945382 113 102 92
0.00987345 0.166874 0.789276 71 55 46
0.229524 0.496428 1.31203 131 80 56
-0.442712 0.614182 1.00969 138 130 122
-0.512781 0.693069 1.01053 173 164 152
-0.419071 0.800065 1.04061 188 181 172
-0.0245168 0.912082 1.06751 173 167 158
0.00585738 0.170286 0.806231 78 66 56
-0.168126 0.192054 0.833788 51 48 42
0.27381 0.49762 1.3633 142 90 70
-0.365194 0.281753 0.901232 168 158 149
-0.0849122 0.307379 0.830041 128 88 94
-0.0757593 0.374352 0.808007 32 30 25
-0.396568 0.398646 0.88798 27 20 12
-0.358892 0.47122 0.791657 40 38 32
-0.505537 0.683553 0.994763 199 190 178
-0.44524 0.723107 0.995953 35 30 22
-0.115028 0.774965 0.961966 18 15 14
0.00372024 0.267257 0.90882 41 36 28
-0.250716 0.296252 0.770739 116 105 64
0.00428398 0.426161 1.0088 176 168 150
-0.381084 0.343146 0.868315 98 124 96
-0.240156 0.789419 0.738986 56 55 54
-0.226214 0.789831 0.669763 52 46 36
0.00558964 0.170887 0.80415 56 42 34
0.298124 0.517827 1.39635 110 52 14
0.287841 0.672121 1.25381 186 161 122
0.328261 0.73435 1.27947 110 57 27
0.193087 0.986317 1.60309 155 144 131
-0.508832 0.62908 1.01518 182 172 160
0.532866 1.05507 1.55801 4 0 2
-0.089761 0.822946 0.985457 0 0 2
-0.242822 0.186143 0.897748 92 69 64
-0.170077 0.210337 0.745322 84 82 74
0.335748 0.46265 1.36424 120 65 30
-0.239021 0.21912 0.740094 55 52 46
-0.338114 0.247267 0.831288 39 36 32
0.452242 0.532995 1.41758 187 163 139
0.104936 0.466369 1.28803 213 188 160
0.426471 0.513407 1.32791 156 98 64
0.00211913 0.495852 1.23979 244 230 203
0.00986374 0.480706 1.11935 89 81 70
0.0137692 0.529228 1.19655 124 110 90
0.102218 0.706349 1.29106 140 57 18
-0.359577 0.460177 0.827568 0 0 1
-0.410129 0.648848 1.01916 220 207 196
-0.417255 0.684961 1.02925 210 184 178
-0.241347 0.811459 0.70436 52 48 42
0.416752 0.505363 1.38739 141 88 58
0.270866 0.520033 1.41354 146 95 63
0.160243 0.712292 1.38927 154 134 110
0.521413 1.02398 1.53926 56 48 40
0.158295 0.996781 1.4223 48 46 44
-0.364498 0.784216 1.01308 53 48 42
-0.0779552 0.191442 0.83763 106 78 80
0.482324 1.04882 1.61007 22 14 7
0.236879 0.961499 1.31975 62 61 58
-0.000770954 0.246798 0.849735 54 37 33
0.325862 0.483993 1.39037 152 106 74
0.276253 0.521348 1.43499 144 91 61
0.0774754 0.474953 1.25687 192 116 35
-0.202746 0.33979 0.729918 88 71 34
0.0019616 0.459223 0.960614 106 98 88
-0.400612 0.435958 0.842674 192 182 168
-0.394918 0.434018 0.820832 129 122 108
0.414783 0.933983 1.22472 40 38 36
-0.106875 0.776816 0.894391 108 100 90
-0.233052 0.803974 0.692231 99 93 82
0.374225 0.443476 1.26822 118 72 44
0.0159098 0.332028 0.945406 79 71 64
-0.373607 0.340336 0.876523 183 170 133
-0.00153082 0.510553 1.15024 104 93 77
0.316212 0.624045 1.23984 16 0 0
0.126108 0.649629 1.32072 142 70 11
-0.399645 0.435236 0.839528 204 195 182
0.534588 1.00627 1.4007 16 12 8
-0.459222 0.714977 1.00252 61 58 54
0.63753 0.913617 1.87906 71 42 28
0.340799 0.739825 1.29455 105 54 25
-0.370715 0.391673 0.81778 126 117 102
-0.345948 0.458967 0.795491 30 25 20
0.249391 0.834479 1.39222 114 84 62
0.587345 1.03909 1.50507 67 58 48
0.20439 0.980223 1.46975 50 42 40
-0.160439 0.227042 0.732777 68 64 60
-0.22773 0.274277 0.714265 37 29 10
-0.456144 0.620391 0.962898 134 132 121
-0.081543 0.384069 0.816999 22 19 15
-0.211 0.397311 0.733565 152 132 74
-0.086611 0.628876 0.888783 230 216 192
0.600757 1.08193 1.5703 134 126 118
0.416191 0.795887 1.2652 104 52 28
-0.0817117 0.314756 0.82572 147 102 108
-0.0720497 0.317754 0.831163 110 57 64
0.179845 0.626262 1.35193 78 76 73
0.00937163 0.440226 0.900297 45 40 30
-0.435422 0.704479 1.00519 63 59 52
-0.462807 0.670684 0.926627 66 61 50
-0.296435 0.75951 0.762262 56 56 56
-0.0735715 0.319675 0.837979 114 60 68
0.00892664 0.439357 0.918458 51 44 32
-0.000651088 0.466521 0.969448 52 46 36
0.569583 1.10396 2.11685 73 28 6
-0.201756 0.474444 0.768781 14 13 10
-0.254043 0.420158 0.663149 79 72 64
-0.382935 0.483517 0.818649 93 88 80
0.483251 1.02118 1.58912 134 108 92
-0.44044 0.718298 0.98419 48 44 36
-0.237441 0.809327 0.700527 50 46 37
-0.073344 0.317322 0.831001 110 55 63
-0.0782878 0.311522 0.814068 141 98 104
0.0157151 0.418631 0.866815 50 45 35
-0.00344414 0.470705 0.9942 118 114 106
0.25497 0.702455 1.35762 98 73 38
-0.412538 0.452431 0.863269 154 148 138
0.457004 0.913302 1.38475 82 46 28
-0.443838 0.639966 1.01556 80 78 68
-0.145013 0.588725 0.807332 183 171 154
0.0241134 0.340328 0.892177 47 38 28
-0.251728 0.296703 0.780025 82 74 46
-0.0907314 0.371544 0.840214 98 65 68
0.0922338 0.619297 1.17217 206 134 33
-0.307744 0.422117 0.801142 166 160 144
0.147874 0.758808 1.41755 53 40 35
-0.141424 0.581954 0.79307 188 175 158
-0.121959 0.590406 0.755143 218 205 182
-0.210218 0.650421 0.740418 62 61 58
0.192023 0.665979 1.19981 228 206 198
0.476507 1.00389 1.52313 25 19 10
0.0233508 0.467987 1.10542 188 174 149
-0.448036 0.409194 1.01493 66 68 55
0.0131328 0.420628 0.92015 171 164 152
-0.429878 0.620494 0.996315 204 196 186
0.436677 0.769274 1.32175 116 52 16
-0.421316 0.563248 0.922107 80 76 66
-0.0501442 0.544364 0.721887 244 232 208
-0.353596 0.455242 0.839949 56 50 44
0.0955896 0.766297 1.411 134 55 10
-0.336655 0.442748 0.79212 28 22 20
0.1085 0.772528 1.37174 85 28 2
-0.317372 0.488904 0.830496 168 154 134
-0.220903 0.773407 0.649626 33 31 24
0.010835 0.474735 1.14566 97 91 75
0.0795087 0.53745 1.27917 168 100 34
0.257331 0.6635 1.28123 158 130 89
0.246685 0.563178 1.75311 200 142 100
0.421997 0.551858 1.41338 78 32 18
-0.471335 0.705815 0.987341 56 52 49
0.366878 0.735458 1.26731 108 48 12
0.106442 0.405857 1.00278 148 63 3
0.00291932 0.440484 1.0887 182 172 150
-0.444993 0.480699 0.957619 203 195 184
-0.385754 0.810746 1.06693 142 136 130
-0.385904 0.81816 1.07163 16 12 8
-0.204706 0.632642 0.71112 80 80 76
0.189154 0.714154 1.3114 228 217 207
-0.43724 0.480041 0.930128 76 69 60
0.207982 0.519596 1.37041 84 25 1
0.41578 0.6759 1.31185 100 58 36
-0.416747 0.610597 0.958548 117 115 109
-0.377387 0.349293 0.897232 182 176 142
-0.39626 0.438684 0.841632 162 155 148
0.461243 0.922434 1.38451 92 80 66
-0.477205 0.695408 0.974652 134 130 122
-0.10935 0.55504 0.639018 162 156 144
-0.347407 0.791588 0.861045 34 32 33
-0.1021 0.188893 0.786995 31 30 26
0.534535 0.620521 1.21405 201 172 158
-0.551691 0.678347 1.1156 162 154 141
-0.33839 0.767792 0.856756 35 34 30
0.0698498 0.739333 1.4289 159 84 33
-0.0776216 0.163043 0.801036 191 184 168
0.324869 0.473483 1.40863 195 185 168
0.349237 0.376903 1.01446 76 22 2
-0.460885 0.656839 1.07225 154 150 140
-0.176933 0.148548 0.838466 30 28 24
-0.406087 0.804936 0.969587 43 40 38
-0.347084 0.366267 0.736083 174 163 143
-0.334105 0.443362 0.728028 38 36 31
0.187577 1.00446 1.44625 63 60 57
-0.114725 0.915231 1.17252 116 107 98
-0.377282 0.805119 1.04105 8 6 3
-0.0934799 0.931698 1.17166 92 86 78
-0.0718583 0.929564 1.14614 120 114 105
-0.421375 0.786433 0.93123 50 48 46
-0.323503 0.207907 0.839828 184 174 161
-0.320764 0.251899 0.764832 216 201 146
-0.337107 0.318252 0.782841 47 66 46
-0.264947 0.346246 0.765962 74 76 64
-0.270197 0.36062 0.795899 48 51 26
-0.250725 0.377479 0.722751 108 110 100
-0.259154 0.399932 0.753191 20 28 18
0.108555 0.76398 1.40547 106 28 2
0.551129 1.0252 1.49922 154 146 136
-0.114178 0.766854 0.950823 178 170 154
-0.0975106 0.920399 1.12132 10 8 6
-0.0962614 0.852533 0.957103 39 38 36
-0.353861 0.233381 0.943462 188 177 164
0.0854884 0.683824 1.34635 195 112 38
-0.115872 0.753677 0.989941 64 58 48
-0.0628967 0.855206 0.950745 30 28 24
-0.261263 0.374493 0.74309 121 130 118
0.212868 0.996098 1.42546 28 26 27
0.404256 1.01615 1.38096 32 30 30
-0.114765 0.749317 0.984592 50 44 36
-0.0696358 0.923352 1.1351 126 120 112
-0.268257 0.158961 0.94916 92 86 78
