ply
format ascii 1.0
element vertex 1372
property float x
property float y
property float z
property uchar red
property uchar green
property uchar blue
end_header
-2.77773 -2.77421 10.3056 73 76 52
-2.4192 -2.53165 10.4357 126 122 102
-2.03091 -2.20715 10.5462 124 121 99
3.01241 0.918672 12.2534 131 99 79
2.1768 1.3124 12.0488 110 83 68
2.16067 1.32255 12.154 106 76 61
3.24993 -1.08074 13.042 184 196 153
2.97512 0.903652 12.2045 140 107 86
1.65727 1.32957 9.15844 160 126 110
3.50772 -0.91374 13.131 70 58 22
-3.15273 -3.34226 10.0476 132 132 87
-3.01383 -3.25982 10.3192 154 152 110
-0.198615 0.453377 10.1364 120 122 104
-1.32505 0.844457 8.99357 179 179 145
0.638558 1.06127 9.66441 42 38 17
1.53144 1.32511 10.8541 155 120 112
3.3988 1.43957 10.6523 120 122 96
-0.213982 1.7251 11.0062 150 105 85
-2.94641 -3.04764 10.2348 110 106 84
-2.81943 -3.06719 10.3753 109 106 84
0.611503 0.721877 9.83354 52 52 25
1.52842 1.13925 10.9742 63 30 14
-3.14019 -3.33456 10.0192 146 146 100
-1.46537 -1.63694 10.7702 152 150 125
-3.05109 -3.11471 10.0435 133 130 110
-2.50205 -2.51348 10.4215 94 90 62
-1.36856 0.910172 8.8331 169 166 140
1.65612 1.17615 10.8987 102 84 78
-2.98618 -3.00729 10.2476 92 92 62
-2.60483 -2.96355 10.5188 144 141 96
1.69941 -0.211908 10.7048 170 170 148
0.587944 0.476509 10.0751 136 138 116
-1.38237 0.865715 9.09562 192 190 165
-1.38215 0.923399 8.85546 180 176 152
1.38479 1.114 11.0866 36 21 10
1.44289 1.26353 10.6692 30 14 8
3.90667 2.87268 11.3639 150 126 112
-1.37058 0.869259 8.90348 194 191 170
1.13366 1.20717 10.2203 98 84 72
1.64536 1.31295 11.0525 106 76 67
1.10717 1.50388 9.77392 164 142 122
-0.488992 1.1575 10.2255 94 74 64
-2.28474 -2.6409 10.6128 131 132 106
1.61966 1.1617 10.6017 110 92 88
-2.26315 -2.66266 10.6613 97 100 62
2.23292 1.37647 11.0917 76 50 32
3.51792 2.00342 10.314 92 92 74
3.81435 2.77603 10.5324 92 63 47
-0.692475 1.17597 11.1881 116 100 94
1.67232 1.22754 10.6369 24 12 8
-0.692256 1.18442 11.5212 183 173 183
1.47853 1.30128 10.5959 107 74 63
-0.218822 1.70026 11.0021 176 131 112
-2.16145 -2.63331 10.7892 122 124 80
-0.227856 1.59767 11.0088 124 78 52
1.58985 -0.306569 12.3271 100 91 78
-2.75636 -2.98747 10.345 120 120 98
-0.0478652 -1.98144 12.0208 141 148 113
-2.76542 -2.99425 10.3374 124 125 102
0.366477 2.60628 11.4873 54 30 26
-1.89855 -2.44906 10.8962 124 124 82
-2.27464 -2.67071 10.6709 98 99 66
-0.61415 -1.15387 11.3683 122 122 98
-3.09777 -3.21431 10.1281 88 87 66
-3.07331 -3.19079 10.1015 90 88 67
-3.22454 -3.3997 10.2183 118 116 76
0.214609 2.3945 11.4773 36 12 8
0.688369 1.39904 11.831 73 43 34
-2.91749 -3.09751 10.4711 100 100 80
1.44819 1.3297 13.1153 40 30 23
2.95333 2.6605 13.983 58 34 26
-2.76188 -2.77033 10.3028 79 80 54
2.98814 0.955032 12.507 122 96 76
3.73599 -1.53434 13.0364 100 92 48
3.24529 0.977566 12.9978 111 76 54
2.15557 1.30621 11.1467 51 28 14
2.79601 -4.79903 12.8137 94 102 59
-1.64072 -4.29916 13.1695 116 116 69
5.24382 -3.3819 10.9322 92 95 67
4.81655 -3.23562 11.3702 138 136 94
-1.88984 -2.45281 10.9059 111 112 67
0.216086 -2.09555 12.2532 152 153 108
3.20619 -1.88948 11.192 86 94 70
2.17393 -1.36346 8.84654 116 119 81
-0.738938 -1.52058 11.6334 118 120 79
3.71049 -1.4881 12.5148 86 80 36
3.7942 -1.47884 12.8837 79 68 34
-0.304043 -1.18704 11.9176 114 120 72
-0.31644 -1.12047 11.6511 96 99 66
1.95116 -0.630222 11.4993 112 115 102
3.41035 -0.712388 13.0303 154 157 119
1.06303 -0.34786 10.0915 144 147 118
0.00619355 -0.357421 11.1159 120 120 94
0.0526056 -0.311322 10.7967 106 106 75
1.99059 -0.532506 14.296 160 160 121
2.65744 -0.480757 13.3357 154 163 124
1.0462 -0.171057 9.99302 132 136 113
1.87355 -0.40596 14.2197 166 159 124
1.78254 -0.371378 13.9551 116 104 79
1.81858 -0.283757 14.1203 40 16 2
-1.50121 0.0520535 13.237 171 156 120
1.31982 0.245762 12.376 68 61 56
-1.54079 0.37756 13.0796 52 37 12
-0.380985 0.426991 13.0468 88 94 78
3.18929 0.286195 13.2287 152 127 94
-0.248089 0.569193 11.169 90 92 84
3.02006 0.489324 12.4032 50 28 12
3.45851 0.526938 12.4843 108 106 79
-1.14693 1.02337 11.0283 84 42 26
3.27598 0.898366 11.9027 113 71 50
-0.661432 1.09409 11.1575 165 154 146
1.458 0.951224 10.7122 80 62 48
2.69533 0.91113 11.1871 24 15 4
-0.541528 1.17913 11.0828 136 124 129
3.27119 1.02122 11.9238 98 65 49
2.9624 1.08538 11.0634 116 96 78
1.69502 1.23344 10.2547 26 6 4
2.51045 1.99844 11.469 60 32 28
1.16048 1.71023 8.26971 84 88 68
1.44711 2.41012 11.0317 123 100 92
1.43674 2.66523 11.1818 128 101 96
1.43088 2.70831 11.2323 126 101 95
2.67488 2.96579 12.7899 68 34 28
2.57056 3.02612 12.5565 50 20 15
2.42553 3.45756 12.7506 66 34 30
1.42701 3.7737 12.0886 82 34 27
1.38474 4.35073 12.5541 70 30 24
-4.01698 -3.94008 10.0867 100 94 50
2.78834 -4.86388 12.9703 95 103 63
2.66986 -4.79365 12.8814 152 155 107
5.0332 -3.36167 11.1657 87 88 44
5.03925 -3.16927 11.0174 64 66 36
-1.17899 -3.55474 12.8221 109 114 82
3.20737 -1.89049 11.1803 80 86 62
3.00773 -1.70727 11.2383 84 89 72
-0.713728 -1.50761 11.5164 121 124 81
3.86145 -1.56855 13.2966 134 132 92
2.4347 -1.16073 11.7285 100 104 90
3.73429 -0.885769 13.016 169 157 122
3.47812 -0.746021 13.2336 112 106 72
2.32128 -0.652817 14.0196 80 73 41
1.74302 -0.379754 13.8371 108 98 80
1.86494 -0.430821 14.6106 159 154 118
-1.6003 -0.0743246 11.6729 131 105 76
1.5251 -0.190388 11.5558 98 102 90
-1.58074 0.0787105 11.131 124 73 46
1.34557 -0.000523555 12.665 65 60 52
2.7695 -0.020792 13.0603 85 71 42
-1.61574 0.256073 13.3959 122 98 76
-0.924234 0.272431 12.8299 32 22 6
1.31208 0.244626 12.465 94 90 83
3.18985 0.23017 13.3645 65 36 7
3.18544 0.479467 12.0741 87 47 18
-0.737386 1.04114 11.236 30 13 4
-0.710491 1.05744 11.3363 127 120 110
-1.43683 1.16687 8.04281 115 110 80
-0.744023 1.35888 11.0518 88 50 24
1.70607 1.22103 10.1417 18 4 2
2.2974 1.29813 10.8545 90 72 59
2.47262 1.32027 10.7478 133 112 104
2.55307 1.33939 10.5099 121 100 92
3.37715 1.38139 10.2182 112 112 92
-0.481098 1.69332 10.8707 62 26 17
3.38505 1.40114 10.0902 144 144 126
1.52483 1.88097 10.7227 28 7 4
2.23545 2.09597 11.2314 96 68 66
1.43432 2.669 11.1921 113 84 78
2.16007 2.6857 11.6595 104 74 70
2.20922 2.70229 11.7731 38 20 18
2.12854 2.90675 11.7409 120 98 96
2.07113 2.9389 11.8098 54 26 21
3.95506 2.6219 9.96514 65 37 14
2.48204 3.47452 13.0208 124 90 86
2.49658 3.34684 12.4258 100 66 61
1.4969 3.22836 11.488 90 46 40
1.39114 4.32007 12.4875 70 30 26
-1.6443 -4.31042 13.1812 142 141 96
-2.72985 -2.74898 10.317 62 63 40
-0.523084 -1.36505 11.7153 136 141 99
2.66064 -1.36652 11.362 70 76 59
-0.544902 -0.750163 11.0695 100 102 74
-0.513899 -0.702866 11.0132 66 69 38
2.19344 -0.453318 14.2884 167 170 129
1.84715 -0.406472 14.3721 165 164 125
-1.5249 -0.10282 11.6532 159 152 110
2.00277 -0.332818 14.2681 102 74 52
2.42309 -0.320231 13.5868 164 173 133
1.94061 -0.263247 14.2642 58 29 18
1.13733 0.129653 12.0851 120 122 116
-1.22147 0.223722 13.4738 157 150 112
-0.951137 0.266525 12.9859 34 22 8
1.30996 0.239264 12.4613 88 84 78
3.03834 0.175367 13.6394 155 136 113
2.99877 0.232125 13.1036 59 33 14
-0.0294668 0.545563 9.94367 74 76 66
3.1945 0.467241 11.988 82 37 11
3.05115 0.826152 11.8383 87 49 25
2.93426 0.898568 11.791 45 20 6
-0.718703 1.154 11.3142 40 24 12
1.52311 1.44991 10.6472 42 15 8
-1.10633 1.83836 12.1241 126 90 68
3.3679 1.37801 10.1905 110 112 89
2.32288 1.77342 11.0915 58 36 33
2.24299 1.86524 11.2065 26 8 6
-1.12205 2.71171 13.2687 132 110 91
3.69565 2.59994 10.1794 140 122 112
2.4864 3.45974 12.982 122 86 82
0.310699 4.04814 12.0147 48 24 10
1.34545 4.29657 12.5499 116 78 72
-2.1685 -2.64999 10.8562 111 116 69
-0.725041 -1.52631 11.5938 145 146 100
-0.532238 -1.36697 11.7125 126 131 91
-0.291311 -1.18325 11.8513 141 146 97
-0.527524 -0.747284 10.9733 96 98 70
-3.63361 -0.636764 12.3975 106 82 37
3.76685 -0.909318 13.3562 170 156 120
1.95181 -0.646662 11.4433 74 77 62
3.69267 -0.795508 12.8205 95 64 34
3.5383 -0.628525 12.6102 167 170 130
2.61046 -0.468945 13.4416 140 152 109
0.27748 -0.192416 10.9327 90 86 64
2.5692 -0.42289 13.4565 164 176 134
2.41584 -0.318804 13.6087 162 172 131
1.7906 -0.27799 14.0543 31 14 3
2.92462 -0.155489 13.5337 165 168 130
3.47879 -0.0659507 12.1655 164 124 110
-0.882825 0.192586 12.6334 156 146 122
-1.43916 0.299772 14.0022 58 28 11
-1.53351 0.345638 13.114 47 26 4
1.29522 0.61279 12.4825 12 8 2
3.04493 0.531945 12.6553 82 63 48
3.29488 0.61214 12.036 128 80 64
3.04215 0.951829 11.7324 56 25 6
3.25016 0.943723 11.6991 142 107 94
3.2554 1.02682 11.7141 106 74 58
3.06897 1.1406 10.9476 144 120 104
1.65074 1.25306 10.0465 102 68 60
-0.109252 1.55373 10.5532 102 56 29
-0.46012 1.68571 10.7945 64 28 18
2.5599 1.67546 11.0474 62 31 28
2.78225 2.16646 12.0766 110 84 80
2.19407 2.36568 11.432 106 82 81
2.26384 2.3883 11.5201 43 22 18
2.56829 3.04289 12.6644 46 19 14
1.42718 3.82128 12.2402 78 27 22
1.40726 4.33557 12.5506 70 28 24
-3.25289 -3.41039 10.2362 100 104 63
-2.13463 -2.61572 10.7277 106 110 64
2.79267 -1.51794 11.3211 58 64 40
2.19939 -0.474813 14.4257 166 170 130
1.58693 -0.256868 12.344 55 46 36
2.01518 -0.343966 14.4249 110 83 58
1.76083 -0.26415 13.6997 28 11 2
-1.54047 -0.0454412 13.41 66 36 12
3.70145 -0.212422 12.4148 162 124 113
3.56186 -0.150172 11.952 184 146 136
2.80214 -0.0618885 13.1257 91 74 40
-1.29452 0.196885 13.0525 56 24 2
-1.1577 0.228794 14.1161 30 20 10
-0.68542 0.245632 12.3979 20 13 4
3.00743 0.639035 11.9995 38 19 8
2.43561 0.813577 11.494 53 48 35
2.90613 0.857847 11.6384 52 23 14
2.88881 0.913805 11.6983 104 82 72
2.96903 0.962007 11.7143 142 118 105
-0.704667 1.18112 10.8773 80 50 28
3.25618 1.02712 11.7515 99 66 49
2.4598 1.26039 10.4971 96 82 70
3.17671 1.24633 10.2657 44 46 24
2.07756 1.35616 10.5435 146 107 88
-0.121149 1.5584 10.5774 102 57 30
1.48937 1.54113 10.6631 174 144 141
2.28945 2.10575 11.3511 32 14 10
1.44087 2.38774 11.0334 107 80 73
3.79803 2.64028 10.1682 168 162 154
2.53791 3.46809 13.1576 84 48 41
-2.84524 -3.07202 10.3976 98 96 76
-2.38578 -2.43202 10.4256 62 66 38
1.72993 -0.278446 13.8156 28 12 3
-1.42 0.210686 13.5738 56 25 4
-1.40423 0.30933 13.2345 107 86 66
3.41964 0.499089 11.9068 113 115 83
3.02223 0.629776 12.1835 44 26 15
-0.812286 1.02242 11.4418 44 28 20
1.45814 0.956809 10.6036 65 46 31
-0.177284 1.70123 10.9302 158 113 90
0.717325 1.44388 8.52725 170 124 92
1.23669 1.65599 10.4749 85 38 15
-1.33551 2.15486 12.9371 124 102 76
2.22969 2.68404 11.7507 38 18 16
2.05712 2.98166 11.9416 57 28 22
3.9264 2.60958 9.83132 65 38 16
2.04096 3.44258 12.1354 98 70 70
1.35754 3.86624 12.2702 101 70 64
1.24268 4.24751 12.2791 72 26 13
1.67049 4.5577 13.2702 138 108 105
-1.58411 -4.25027 13.4581 132 138 94
-2.38591 -2.43985 10.4467 60 64 37
-1.89754 -2.44242 10.8935 87 90 50
-1.24419 -1.90386 11.4735 126 130 90
3.62925 -1.06391 13.1502 138 142 100
-3.62925 -0.637129 12.3506 120 102 52
3.6889 -0.594598 12.2067 164 130 109
-1.73041 -0.221454 12.6353 72 42 18
2.37879 -0.379677 14.2082 164 175 130
2.06704 -0.317563 14.163 116 88 56
-1.57295 0.0665005 13.4961 144 132 92
-1.23764 0.373865 11.2575 167 154 106
3.01487 0.371106 12.6692 32 12 2
-1.12075 0.753019 12.407 44 38 22
3.01294 0.637808 12.4964 40 22 9
3.24504 1.0154 11.6984 124 92 77
2.00843 1.35407 10.2463 162 122 103
-1.1295 1.86274 12.0333 161 147 122
1.09627 1.48396 8.50184 37 46 28
0.769839 1.606 8.11968 93 58 40
1.42261 2.10921 10.8496 48 18 11
3.90538 2.54863 9.91843 170 160 151
3.71137 2.68017 10.3755 138 119 107
2.72277 3.59818 13.946 90 54 46
1.14803 4.42621 12.6114 147 100 84
-1.94214 -2.47876 10.9735 130 132 85
2.20497 -0.700918 14.2768 152 152 118
1.78482 -0.40412 14.231 132 122 96
-1.33222 0.275386 12.9069 154 131 110
-1.15494 0.367024 10.9852 158 146 96
-1.49414 0.482515 10.8983 158 158 104
-0.587515 0.716988 11.1769 18 8 4
-0.733661 1.03665 11.3826 84 74 64
1.63697 1.15517 9.8177 78 40 28
1.84021 1.41041 10.4861 160 127 116
2.76036 1.89969 11.6386 75 49 44
3.91177 2.59592 9.84687 73 48 32
2.09129 4.11952 13.4442 80 45 45
-3.25923 -3.42776 10.2272 154 158 108
5.07659 -3.37336 11.0754 114 117 72
-3.02668 -3.01343 10.2478 56 54 26
-1.16877 -1.87684 11.3523 104 106 62
0.364036 -1.46566 10.0302 124 128 83
2.42232 -1.11578 11.3958 101 104 92
3.18306 0.725071 11.919 108 67 42
2.21021 2.3458 11.3397 130 110 107
2.12973 2.91966 11.7795 130 112 112
2.11298 3.04358 11.8438 118 94 94
1.96302 3.99167 12.5814 120 94 94
-1.18627 -1.88257 11.4234 110 111 66
3.56635 -0.912638 13.0367 68 48 16
2.9173 -0.734451 13.3203 162 168 126
3.01445 0.211751 13.2915 96 70 49
3.10333 0.53773 11.8443 127 97 82
1.95911 3.99078 12.6011 114 88 86
-3.08891 -3.15894 10.1279 104 104 84
3.44229 0.514314 12.2141 128 122 96
3.00695 0.883238 11.8236 121 82 58
-0.384437 1.53736 10.8089 126 80 57
1.43272 2.402 11.0442 114 87 82
1.41446 3.32211 11.6803 128 102 98
1.35176 3.44565 11.7766 50 12 4
1.31876 3.79524 12.0772 80 30 19
1.29097 4.27263 12.4176 88 38 28
-2.75409 -2.76647 10.3181 54 56 34
3.56482 -0.911976 13.1294 54 34 9
2.10617 3.00685 11.7753 98 78 76
1.40012 3.38866 11.7362 120 96 94
1.39502 3.79497 12.0869 98 61 56
1.72072 4.35039 12.6703 128 94 90
1.19796 4.3825 12.5925 138 90 74
-2.86182 -3.03575 10.2899 109 108 88
-0.994482 -3.27782 12.8243 96 103 68
-1.19562 -1.86585 11.3468 89 93 54
2.76005 -0.580889 13.6126 158 169 124
-0.77904 1.03243 11.3375 46 30 22
2.84089 0.899464 12.8425 30 16 8
-0.69573 1.08836 11.208 126 119 110
1.2842 3.85777 12.2285 70 22 14
1.17948 4.39709 12.5799 128 78 64
-1.4591 -2.09312 11.3166 128 128 84
3.48999 -0.719166 12.977 64 50 20
1.49389 1.49414 10.3096 171 142 138
1.42658 2.6901 11.1853 102 76 71
1.39607 3.34505 11.6745 103 74 67
3.68312 -0.762464 12.73 108 73 42
1.51496 1.51504 10.2787 173 144 142
3.74492 -0.489731 12.4977 128 88 65
-1.54485 0.0479162 13.4501 148 133 96
3.1807 0.159666 12.1762 124 110 74
1.27581 0.615772 12.5988 14 11 3
1.4032 3.30765 11.7044 122 96 92
1.38188 3.78458 12.0643 126 96 94
1.6956 4.35405 12.7661 83 46 42
2.91779 -0.156105 13.5286 164 154 126
-1.13516 1.75136 11.8796 74 40 20
-1.41623 -2.06707 11.2295 113 114 70
-0.894815 1.52637 11.2993 128 88 60
-2.59834 -2.96228 10.5281 107 104 58
1.97109 3.89187 12.5161 127 100 97
-3.00822 -3.00658 10.231 56 54 27
-3.23094 -3.40145 10.2093 94 98 58
-0.181363 -0.825759 11.479 91 94 60
-2.7452 -2.76225 10.3202 54 56 32
-2.37807 -2.79752 10.6906 90 87 49
-2.74116 -2.77572 10.2138 64 64 40
1.39484 3.42729 11.7079 88 53 48
-2.64999 -2.7338 10.3098 107 103 80
0.217851 1.45792 10.8641 48 16 6
-3.10255 -3.14661 10.1568 114 114 96
-2.48095 -2.63323 10.4282 100 100 76
2.24337 1.85847 11.046 30 8 5
1.44428 2.39613 11.0331 123 99 96
0.0453159 2.40637 11.1554 112 70 52
0.243244 -0.824808 11.6453 162 162 115
2.89 -0.186672 13.4596 148 140 116
-3.11825 -3.14635 10.0484 54 60 38
1.44483 4.13043 11.8374 74 30 20
-0.990555 0.711063 11.7718 112 110 84
-1.5996 -0.00967951 14.3959 148 149 106
-0.923867 0.897979 12.1929 74 62 42
1.49173 -3.48344 13.3922 148 154 108
3.10929 0.415409 12.1809 80 54 36
2.91952 0.825799 11.5617 55 26 11
2.91923 0.832017 11.5951 53 24 10
3.04659 0.447869 11.5475 80 58 40
-1.19722 1.59651 12.0995 82 46 22
1.4395 -3.79062 14.0589 123 128 88
0.800973 1.35492 7.77486 163 116 84
0.613072 1.45639 8.00197 106 68 52
0.714948 1.45556 7.84993 68 32 19
1.68458 4.92509 14.8264 86 53 51
-3.38822 -3.53237 10.0812 93 94 48
-3.05568 -3.16649 10.0969 72 72 52
-2.59963 -2.96465 10.534 94 94 52
-2.12106 -2.57847 10.7851 88 92 60
2.82292 -1.53229 11.3152 84 92 72
-0.503751 -1.35674 11.6748 106 112 71
0.607689 -1.39415 12.0723 132 138 90
2.43771 -1.12662 11.4037 92 96 84
-0.377768 -0.983789 11.3735 84 88 58
-0.195096 -0.836006 11.5336 84 88 56
-0.546536 -0.752032 11.0547 96 99 72
-0.504743 -0.705877 11.0026 57 60 28
0.427289 -0.590939 11.3079 64 64 15
2.3 -0.703754 15.0172 64 64 29
-1.59643 -0.305836 11.5599 70 50 30
2.13896 -0.514259 15.3086 155 155 116
-0.713834 -0.230675 12.7699 148 150 110
-1.52276 -0.0744091 11.4884 154 142 104
-1.53173 -0.0757152 11.3924 80 56 28
-1.66926 -0.109759 13.0691 150 126 86
-1.36076 0.211241 11.1721 144 132 92
3.00904 1.00162 11.5189 152 124 114
3.06345 1.02398 11.553 78 45 18
-1.02734 1.29798 11.1252 172 130 104
3.11906 1.16397 11.4249 142 114 104
2.50308 1.2108 9.96602 92 78 62
2.29792 1.32705 10.5912 70 42 23
-1.17067 1.78296 11.9765 66 42 17
2.52686 2.00275 11.5662 56 26 22
1.40366 2.9841 11.5315 104 64 56
1.52308 3.19945 11.2965 111 66 56
1.41978 3.7799 12.0906 68 23 16
1.972 3.88469 12.4965 127 98 95
1.27004 4.44862 12.662 81 36 21
-2.62967 -2.97062 10.4682 144 145 96
-2.60746 -2.96436 10.5376 85 85 49
2.8075 -1.49685 11.1942 72 78 58
-0.569007 -1.38391 11.8803 106 111 69
2.44762 -1.13091 11.3562 62 68 52
0.00889961 -0.972022 12.0286 124 130 86
3.68664 -0.805257 12.8213 117 84 54
-1.83992 -0.300096 12.6033 113 94 71
3.74537 -0.448179 12.2811 116 80 54
-1.0272 0.199056 13.1847 142 141 108
-1.42871 0.230043 14.2323 142 138 105
-1.32117 0.291915 13.6521 45 28 10
3.02502 0.1773 13.943 139 116 90
2.99346 0.242415 13.9617 56 28 10
-1.19604 0.895176 12.0575 90 72 57
-1.21957 0.936264 10.9732 90 50 29
3.01697 0.974256 11.7891 74 44 27
-0.990411 1.25428 10.9522 156 120 92
-1.11963 1.58893 11.7507 128 104 77
-1.1773 1.7475 11.9361 89 68 44
-1.17841 2.57713 12.9294 60 40 26
1.4278 2.95808 11.4 96 53 46
1.41474 3.29886 11.6445 106 76 72
2.03301 3.50269 12.2719 114 85 84
1.38373 3.78498 12.059 111 74 64
1.2471 4.47874 12.7692 92 45 29
-2.64056 -2.98288 10.4959 144 145 96
-2.58136 -2.95233 10.5032 90 90 51
-0.746412 -1.52569 11.6703 106 109 68
-0.765433 -0.912418 10.9523 74 72 46
1.06558 -0.516957 10.8151 80 80 36
3.48345 -0.748504 13.2076 66 55 22
3.52049 -0.71789 13.1263 140 136 98
3.56494 -0.644853 12.8149 158 152 114
2.2956 -0.692964 14.9179 76 64 36
-0.701039 -0.234624 12.7417 160 164 120
-1.53757 -0.0609138 11.3787 98 68 44
-1.8212 -0.128795 13.4833 120 94 56
-1.88388 -0.082467 13.6905 158 144 98
-1.52316 0.314701 13.6598 129 111 94
3.18743 0.481266 12.0179 86 42 5
-1.07604 0.870355 10.578 95 58 36
-0.9903 1.25761 10.9623 161 124 96
-1.2318 1.63878 12.1748 76 40 15
-1.30812 1.79166 12.3128 87 61 38
-1.27052 2.39639 13.0901 56 20 4
1.43599 2.66837 11.1831 101 72 66
1.42078 2.94769 11.411 94 51 44
1.73241 3.1367 11.5893 108 65 59
1.64369 3.17485 11.587 104 60 56
2.61047 3.38287 13.071 66 27 16
2.03982 3.47586 12.1848 114 85 84
1.37603 3.79292 12.0775 114 80 72
1.37835 4.36269 12.6373 68 26 19
-2.72734 -2.75195 10.2822 47 49 27
-2.65166 -2.75834 10.2998 78 80 55
3.22055 -1.86417 10.9962 66 72 47
2.81595 -1.51928 11.2346 78 84 63
2.65922 -1.34185 11.2341 59 68 49
-0.201137 -0.84496 11.4694 93 94 64
1.96592 -0.647812 11.4577 90 95 81
1.02188 -0.507408 11.0217 71 71 28
-1.42962 0.192382 13.5534 55 22 5
-0.971261 0.202764 12.9804 133 132 98
0.640843 0.193383 9.19603 64 66 44
-1.02158 0.777613 10.5974 128 92 78
-1.13057 0.992992 10.7616 162 142 118
2.92387 0.93516 11.5764 113 88 78
3.26344 1.05074 11.7884 92 58 42
-0.296881 1.51411 10.5408 84 38 16
-1.29706 2.67543 13.3912 60 40 27
2.61266 2.95239 12.5454 98 70 70
1.65607 3.13978 11.4756 104 60 56
1.39664 3.35499 11.7236 114 88 86
-3.02341 -3.25096 10.3183 105 104 70
-2.85902 -3.0396 10.2815 100 100 82
3.63111 -2.32358 9.93977 157 160 115
2.64078 -1.31295 11.1336 48 56 36
0.131852 -0.891102 12.0001 162 163 122
-3.99053 -0.684769 13.0916 96 74 26
-1.87219 0.062839 14.4008 146 134 96
3.03742 0.532839 12.6572 90 64 50
-1.10983 1.27577 11.2905 153 116 88
2.61378 1.35566 10.123 153 133 132
-1.31396 2.55613 13.2986 136 114 89
1.39331 3.36254 11.72 98 70 66
1.3521 3.86503 12.1606 87 52 45
1.26303 3.96631 12.3017 52 18 12
-2.74717 -2.77299 10.2541 44 48 24
-1.88678 -2.44862 10.8552 112 113 66
2.40585 -0.386401 14.022 148 160 117
-1.69787 0.325461 14.437 124 116 91
-0.990307 1.25948 10.9767 146 109 82
2.31209 2.07476 11.1873 33 14 10
2.10974 2.98232 11.7812 78 56 54
2.73737 3.69085 14.4025 72 40 30
-3.24359 -3.40009 10.2142 104 110 66
-1.60415 -0.102734 11.8109 150 148 102
2.99791 0.534014 13.0217 66 36 20
-0.640662 1.02343 11.1502 71 61 53
2.89026 0.870065 12.083 54 24 14
-0.9261 1.20995 11.4699 82 50 32
-0.00802703 1.59002 10.0757 143 96 72
1.37791 3.33837 11.6914 93 56 50
3.66166 -0.828717 13.1083 134 100 69
-0.932352 0.668646 11.4362 69 64 48
3.44553 0.529013 12.6876 94 100 67
-0.730326 1.21173 11.0704 66 36 19
2.11613 3.03856 11.8299 102 77 74
-1.63959 -2.25206 11.0277 94 98 58
1.93998 -0.635383 11.5351 84 88 72
1.3348 3.77888 12.0322 95 43 32
1.95431 3.96985 12.6007 124 98 96
1.34537 4.2874 12.4832 118 79 72
-3.22392 -3.40034 10.2201 110 114 66
-2.97332 -2.99585 10.1923 53 53 28
5.06199 -3.22258 11.1544 55 60 28
-1.37264 -2.05112 11.146 114 116 72
2.08646 2.95959 11.8709 80 56 52
2.10818 3.02708 11.9073 116 97 95
1.35183 4.30413 12.5004 120 84 78
3.52568 -0.672544 12.7413 150 147 111
2.03184 3.46505 12.1909 74 40 39
-3.01473 -3.01794 10.2824 47 49 25
4.9979 -3.23966 11.1117 50 50 20
3.49669 -0.67985 12.7858 142 141 104
-1.21543 0.995287 10.9575 162 144 120
-3.08667 -3.3159 9.94752 60 69 32
3.20641 0.112139 12.0696 98 92 60
-2.34317 -2.78081 10.6385 92 90 52
1.62252 4.40098 12.8204 66 26 20
-2.80906 -2.78592 10.3824 46 50 26
-2.77773 -2.79163 10.2602 50 54 28
-2.39355 -2.52469 10.4257 83 82 56
2.24165 2.66702 11.4624 32 14 14
-2.61135 -2.97053 10.539 121 122 76
-2.62408 -2.96158 10.5151 106 106 68
-3.12862 -3.14976 10.0994 46 50 27
-2.83743 -3.12306 10.4299 110 112 63
-1.38973 -2.06169 11.179 112 114 68
3.78332 -1.58206 13.1375 76 68 27
3.84709 -1.49223 13.0683 98 100 62
-2.35521 -2.79238 10.6317 110 108 62
-0.805775 -0.951679 10.9955 105 102 76
-1.04358 1.12461 12.2602 28 16 3
2.17518 2.66993 11.5544 106 77 72
1.73372 3.16387 11.6627 120 76 68
1.40693 3.30814 11.6739 122 96 95
1.33321 3.78849 12.056 72 28 21
1.35084 4.27227 12.4624 120 84 76
1.22198 4.41313 12.6545 132 82 65
1.20678 -2.05641 10.4995 115 124 72
1.29391 4.30644 12.4827 69 24 14
2.10753 3.00233 11.8435 84 64 62
0.606234 4.04106 12.3234 102 72 68
1.69573 4.4807 13.1004 136 102 97
-1.38907 -0.166515 11.4986 124 104 65
1.42893 2.37696 10.9756 66 38 33
1.37411 -1.81955 9.32048 109 117 64
-2.99387 0.0419855 17.9773 118 109 74
0.690197 -1.24886 11.8395 151 154 104
-1.47159 1.94471 13.0897 136 116 90
-1.98915 2.43186 15.0693 110 88 64
2.1177 3.02341 11.7777 107 86 84
2.08881 4.7639 15.3289 88 60 56
0.806921 -1.1868 11.2066 154 158 106
-2.08734 -0.0742878 15.1766 58 38 12
3.25157 1.40629 12.2344 82 76 58
0.674817 -1.29339 11.9316 162 166 115
3.04751 0.3627 11.5927 40 18 5
-1.17223 1.48944 11.6653 150 122 94
-1.60345 2.72332 14.3154 130 110 84
1.16154 -2.04103 10.4957 116 124 70
-1.28372 1.64505 12.3153 88 56 30
-1.5095 1.83978 12.9486 104 82 58
2.88471 2.94861 14.457 76 46 36
1.20299 2.26451 5.13681 98 91 70
0.350706 -0.788458 10.9388 160 164 115
-1.35851 -0.141219 12.8055 106 98 68
3.01808 0.745127 11.7468 126 84 56
2.50366 1.18936 9.51731 88 72 55
-1.40111 1.81275 12.604 127 108 84
-1.2064 2.63315 13.1262 52 26 10
1.91662 4.11383 13.0848 98 69 65
-5.42361 -4.51236 14.3164 50 52 30
-0.191444 0.701208 7.692 134 133 101
3.22931 1.34314 12.4585 126 113 100
2.50299 1.18445 9.5228 74 62 44
2.95145 2.72989 14.2135 84 52 39
-4.08751 -3.77542 11.8271 48 56 28
-1.87229 -3.88544 13.9236 135 136 90
0.263214 -1.92633 7.29989 80 88 39
0.830473 -1.2699 11.0472 164 169 116
-7.09022 -1.19847 19.5171 130 118 64
-1.81351 -0.081164 12.4196 152 154 104
-0.17443 0.699942 7.63868 134 133 101
-0.565211 0.889209 10.4681 30 18 6
2.91726 0.799955 11.4986 44 18 10
-0.720507 1.15661 10.8495 82 54 36
2.84398 0.944451 10.9085 60 40 22
-2.82784 -3.04642 10.3532 48 52 30
-2.83725 -3.01721 10.2788 98 100 80
3.46861 -1.91254 7.29886 143 146 98
-2.13021 -2.42006 10.5848 70 72 51
-1.88281 -2.44444 10.9015 83 85 44
3.62042 -2.25338 11.0706 87 94 69
3.4327 -2.0802 11.0912 78 86 62
-0.136416 -2.11669 11.9921 96 106 66
-0.628076 -1.17949 11.2799 86 88 64
2.62264 -1.32507 11.3586 86 92 76
3.5687 -0.934967 13.062 50 35 4
1.1651 -0.479932 10.4955 98 97 64
-1.02236 -0.445026 12.4507 110 114 72
-1.56405 -0.0765853 11.459 78 56 30
3.73892 -0.245169 12.07 123 90 74
0.62743 0.206063 11.8841 32 24 4
0.0230977 0.415087 9.99125 76 80 61
-1.367 0.721782 12.4333 112 96 84
-1.44496 0.738343 13.0493 108 104 81
1.03396 0.812276 8.88984 100 114 86
0.973518 1.29947 10.6523 30 6 0
1.04051 1.29268 8.96872 131 97 70
0.703775 1.93407 10.616 160 114 103
2.62755 2.97823 12.5491 124 98 96
1.72429 3.16074 11.6508 118 71 65
2.52435 3.39016 12.8072 126 97 94
3.88417 2.45382 9.21308 157 140 131
1.41245 3.36616 11.8196 63 26 22
0.511581 3.55136 12.0401 130 95 86
2.48954 3.41199 12.6751 58 27 25
2.56253 3.44497 12.8301 46 16 10
0.494716 3.64743 12.1728 114 88 84
1.36874 3.44913 11.7565 54 14 6
2.53941 3.9475 13.965 90 53 46
2.38192 3.88606 13.1766 126 96 94
1.38565 3.78022 12.0517 125 95 92
0.633309 4.05758 12.4417 56 16 12
1.37427 4.40196 12.6102 80 36 24
4.75383 -3.14679 11.0784 94 96 51
4.49053 -3.06671 11.2099 114 118 66
-2.36364 -2.78927 10.6659 108 107 63
-2.06975 -2.59395 10.6784 77 80 37
-1.88437 -2.44398 10.8962 86 88 44
1.17178 -2.08039 10.602 116 120 72
2.63236 -1.32454 11.3286 70 76 59
-0.266368 -1.16955 11.8017 92 99 46
-1.58317 -0.748638 12.3246 121 124 72
1.17679 -0.476671 10.4458 93 92 54
-1.59955 -0.113033 12.9174 142 120 80
0.998969 0.295884 9.46345 98 108 78
-1.38323 1.229 7.79628 73 74 54
-0.762286 1.35637 11.0732 108 66 39
0.9776 1.29418 10.6523 28 6 0
1.02914 1.4476 8.80829 156 116 91
1.04767 1.54808 8.43892 54 58 39
0.721098 1.93115 10.5679 148 102 90
0.615091 2.24625 10.8573 94 48 40
2.7182 2.50389 12.3716 97 66 64
2.61099 2.97235 12.6275 110 85 84
2.65362 3.34021 12.9736 56 20 11
3.98423 2.56525 9.7582 103 76 55
1.45163 3.352 11.6676 63 26 22
2.49198 3.45667 12.8634 110 84 82
2.48712 3.91205 13.7645 104 68 62
1.97441 3.88497 12.5002 118 87 86
1.33176 4.30547 12.5626 125 85 76
1.3784 4.3761 12.6118 80 36 26
1.59294 4.36692 12.6455 96 56 50
1.73467 4.46562 12.9497 97 64 59
1.63545 4.50308 12.77 133 96 88
-2.36686 -2.78995 10.6663 76 74 38
1.14121 -2.09251 10.6911 107 114 64
-1.17436 -1.6406 11.0231 80 82 59
-0.920991 -1.69337 11.4274 120 122 80
2.8045 -1.51785 11.3196 88 94 76
2.6368 -1.327 11.3322 76 81 64
0.428695 -0.342975 10.3593 100 103 63
0.554356 0.455645 9.42931 89 90 66
1.02673 0.862012 8.85047 94 106 78
1.02145 1.27151 10.7674 94 65 55
2.6177 2.96555 12.5661 102 76 76
2.50733 3.4224 12.799 110 80 78
2.43582 3.46409 12.8949 85 52 49
1.39543 3.40119 11.7639 114 92 90
0.480959 3.62666 12.1776 120 93 88
1.33431 3.45648 11.7991 54 12 6
2.36795 3.92631 13.2417 123 94 92
0.557735 4.11397 12.5639 116 87 82
2.00771 3.84266 12.3304 114 82 81
1.24111 4.33542 12.5878 83 32 18
1.08382 4.5055 12.6707 103 56 39
1.66524 4.50305 12.7501 124 88 81
4.7589 -3.16294 11.1093 80 82 38
-2.37037 -2.79018 10.6801 92 92 51
2.98713 -1.71155 11.3305 76 84 62
-1.36094 0.280045 13.2307 141 121 104
1.02863 0.529079 9.168 96 106 76
0.713184 1.93136 10.568 148 102 90
2.21524 1.8532 11.0065 24 8 4
1.45795 2.11319 10.7885 109 84 79
2.44913 3.45861 12.9565 89 59 56
2.54615 3.46047 13.0086 42 15 10
0.539356 3.54563 11.973 125 95 88
2.45808 3.49605 12.7175 53 24 20
-0.0674777 4.20356 12.9848 76 32 17
2.17256 4.20003 12.9689 114 84 82
-2.60565 -2.96276 10.5387 100 100 58
4.74953 -3.21185 11.2354 148 152 102
-2.26567 -2.64907 10.6876 50 55 24
-2.14375 -2.62426 10.803 68 71 30
2.97897 -1.70708 11.3015 56 64 42
-1.67947 -0.106706 13.0764 161 150 103
-1.6101 0.290225 13.3387 60 36 16
-1.21456 0.702984 11.9933 116 100 83
1.08695 1.16721 10.6559 30 13 8
-0.887666 1.67613 11.3793 102 68 48
1.03285 1.43221 8.79797 132 96 72
0.469753 3.09975 11.6161 100 71 66
3.90336 2.64034 9.78318 88 58 40
2.38529 3.88845 13.0858 114 84 83
5.09373 -3.34267 10.8504 156 159 114
-2.35343 -2.72969 10.7584 105 107 67
-0.927136 -1.68312 11.4209 94 96 58
3.74303 -0.489635 12.1508 132 90 68
-1.71372 -0.109118 13.1302 156 143 98
-1.24285 0.221492 12.5198 72 44 24
-1.11361 1.38007 11.2138 94 50 22
1.00825 1.31664 9.04838 153 112 84
3.9586 2.59006 9.87595 86 49 24
1.95181 3.91717 12.5221 86 51 50
-2.40977 -2.45026 10.458 50 54 26
-0.909837 -1.6815 11.3608 104 107 67
-1.77608 -0.105004 13.2447 157 150 103
-0.763264 0.732463 10.3644 114 102 64
1.16779 1.18828 10.4306 21 10 6
2.17572 2.73584 12.0033 38 18 16
3.66259 2.81464 10.7623 118 96 82
0.539781 2.91245 7.18292 101 94 74
5.02934 -3.28976 11.1286 53 56 24
3.31509 -1.03798 13.0693 150 166 119
-1.91266 -0.54423 11.9345 144 140 85
-1.13982 0.204406 12.9684 49 22 10
-1.34103 0.832715 10.8016 100 98 58
-1.14134 1.34645 11.1444 108 64 44
0.477966 2.92789 7.30202 150 140 126
-3.22756 -3.39774 10.2188 78 82 41
-0.370716 -0.965995 11.4367 80 84 55
1.29468 2.60418 10.9003 106 58 48
1.32476 4.29806 12.5788 124 85 75
-3.92984 -3.83021 9.93509 79 75 36
-0.242112 -0.852645 11.6108 84 87 56
0.60938 0.210134 11.9215 30 20 6
0.615626 4.06476 12.5033 72 29 20
1.31047 3.95807 12.2207 52 16 8
-3.16237 -3.33216 10.15 43 50 22
1.15711 -0.496597 10.5097 102 102 66
2.56472 3.42001 12.8384 50 22 19
1.01572 2.46215 10.9929 36 6 4
2.46988 3.41231 12.6554 90 54 52
2.31552 3.92407 13.1339 76 42 37
-2.74554 -2.97953 10.4084 46 50 28
-2.5895 -2.7171 10.2224 96 94 70
0.271607 -0.647824 11.7401 52 54 14
4.75325 -3.18979 11.1667 150 154 104
-1.30487 0.838479 10.7912 115 108 75
0.429805 3.65498 12.2797 108 74 70
2.05363 3.43511 12.0767 96 62 59
1.36796 3.83219 12.0853 96 60 54
1.35744 3.82746 12.0998 95 58 50
1.19433 3.95418 12.2191 50 14 8
-2.59083 -2.93834 10.5697 148 148 102
-1.13172 0.709893 10.8581 128 94 74
-0.143375 -2.11493 12.0003 93 101 62
-1.36193 0.178931 11.1746 148 136 90
-1.29119 0.818711 10.8614 153 135 106
0.419983 2.61042 11.3454 32 8 2
4.5017 -3.06428 11.1985 98 102 54
-1.37945 0.174251 11.1858 131 116 74
-1.39625 0.164529 11.2196 128 114 70
0.997464 2.45777 10.9976 49 14 8
1.30738 3.45568 11.7694 60 15 9
1.01984 0.201281 9.6853 44 41 25
-1.63484 0.396843 11.1491 148 139 84
-1.34295 0.817011 10.8797 126 118 88
1.22 1.66397 10.3966 70 25 8
-3.58349 -3.27194 10.7683 46 52 30
-2.87031 -3.07142 10.4126 58 60 39
-0.574484 -1.14511 11.2754 87 88 62
-3.02322 -3.06696 10.0435 56 55 32
-3.1624 -3.15663 10.1235 44 46 25
-3.13826 -3.2752 10.1625 86 86 64
-0.412612 -0.992539 11.4201 72 74 46
-1.04511 0.679655 10.9483 133 118 84
-1.15811 -1.87323 11.3387 98 104 60
1.33355 3.95349 12.1534 59 19 10
2.19768 4.15246 13.2319 112 85 82
1.0381 -0.145266 9.82548 117 122 90
0.338202 2.58938 11.3495 122 92 82
-0.433717 -3.05607 12.6231 112 122 76
2.20122 4.214 13.2789 67 40 36
4.47375 -3.08513 11.2376 156 158 106
-0.0581479 1.50238 10.6202 152 112 79
2.22033 4.21468 13.2704 94 68 64
2.15258 4.2077 13.0858 78 47 44
3.34795 -1.04041 13.1082 146 160 116
-2.42094 0.512732 12.9671 133 126 85
1.43217 2.10004 10.7869 76 48 42
-3.13993 -3.27803 10.1745 100 101 81
5.26175 -3.40652 10.9475 83 90 62
4.73308 -3.16989 11.2011 128 132 90
-0.855357 -2.71033 12.2807 117 123 78
-0.0283876 -1.93811 12.0245 109 116 82
-0.276131 -1.17566 11.8184 88 95 44
-2.63706 -0.78777 15.8804 116 122 78
-1.53303 -0.223707 11.7135 154 140 100
-0.962236 1.52542 11.3289 160 138 110
1.40275 2.39887 11.1401 118 92 88
2.44906 3.99574 13.5902 88 61 59
5.25075 -3.40437 10.9283 67 74 44
-2.90776 -3.15638 10.4682 150 148 102
-0.553131 -0.755963 10.9242 62 62 26
-1.34863 -0.627752 12.4123 122 126 78
-0.353056 -0.576262 11.2435 96 97 62
-1.3234 -0.599304 12.4525 115 118 76
0.421139 -0.615132 11.3426 56 58 12
0.402352 -0.470318 10.715 103 106 66
-0.947137 -0.458428 12.2119 134 136 90
-1.08186 1.29884 11.2672 160 120 89
1.50108 1.43418 10.5342 45 20 10
-0.338096 1.69971 10.2796 138 120 98
0.510895 3.55421 12.0264 126 88 82
0.502534 3.63222 12.1313 114 86 80
-0.157666 4.25642 13.149 88 52 36
1.32788 3.91385 12.3265 109 81 79
4.76741 -3.19675 11.1905 114 116 66
-1.53082 -0.73486 12.2094 132 134 84
-1.38081 -0.641896 12.4738 135 138 88
1.62845 3.18237 11.6566 110 63 56
2.0249 3.45741 12.2892 114 86 86
5.06158 -3.2304 11.1143 52 56 34
-1.14956 -3.5469 12.7389 100 105 72
-1.17883 -1.88012 11.3765 95 100 54
-0.519786 -1.36914 11.7303 110 116 71
0.136168 -0.917925 11.8859 163 162 118
0.420747 -0.616833 11.3184 54 57 11
3.69461 -0.78894 12.7421 114 81 50
3.53077 -0.693527 12.7532 76 61 28
-1.58052 -0.235054 11.8256 154 140 100
-0.0219518 -0.183853 10.7467 132 138 88
3.73719 -0.239811 12.0184 120 84 67
0.374158 2.63104 11.5113 36 8 2
1.2973 3.47707 11.9028 58 14 8
-0.000447843 -1.93644 11.8916 102 109 75
-0.525859 -1.3734 11.72 123 128 83
0.077565 -0.946101 11.9985 161 162 116
0.506479 0.196881 9.6265 94 98 73
0.374584 2.63253 11.5041 30 7 1
2.18586 2.73509 11.8182 33 13 12
2.61174 3.38715 13.1097 58 24 16
2.59589 -1.36732 11.5418 61 66 50
-1.45918 -0.185013 11.5531 147 136 92
-0.40173 0.0902048 10.4365 158 144 99
2.42786 3.49378 12.5926 56 26 22
4.75831 -3.20029 11.2139 116 118 71
1.26215 1.4624 10.7282 47 14 5
0.47305 2.62464 11.3191 18 6 3
0.447012 3.57493 12.1337 94 43 31
1.34304 -4.00406 14.6465 146 154 106
1.34348 -2.32548 13.7769 136 140 102
0.544875 2.99365 11.2664 110 82 75
2.50999 3.6093 13.4921 56 24 19
0.634303 -1.33049 12.083 160 164 116
-1.19864 1.79753 12.2212 136 111 88
1.24457 -1.70103 10.3435 154 158 114
-0.0931613 1.6385 10.4059 133 89 66
1.24875 -4.19909 15.2509 110 118 74
1.24869 0.136294 11.4231 102 105 101
2.73443 3.82166 14.9432 74 40 28
0.928907 -2.08861 11.9187 138 146 96
1.40911 -2.28456 13.31 121 128 86
1.10607 -0.522648 10.6467 90 86 46
1.02038 -0.48522 10.6242 83 84 40
0.988772 -3.05995 15.3656 76 86 50
-0.0281791 0.853483 9.28629 38 26 12
-0.501686 1.05927 10.6764 47 34 27
-2.58024 -2.81252 9.61023 62 60 38
3.74878 -1.76692 15.0339 80 74 28
3.78528 2.30999 9.102 160 150 140
-3.01485 -3.25182 10.3196 106 104 61
4.20271 -2.86602 11.1164 98 101 58
-0.832684 -2.71024 12.2341 110 114 70
-0.263593 -2.80313 12.5332 108 116 67
3.8612 -2.44396 11.0148 82 88 62
-0.135642 -2.12077 11.9987 94 107 66
2.5764 -1.29953 8.31007 96 94 88
-0.352242 -1.00516 11.5506 68 74 42
0.719531 0.46463 10.9432 66 72 60
1.15772 0.783093 9.62548 68 68 55
1.55379 1.60348 10.4439 64 27 10
0.391062 1.98274 10.6932 121 88 78
0.332511 2.01374 10.8919 45 11 4
0.336313 2.01156 10.7897 114 84 77
0.644411 2.24172 10.8009 114 66 60
0.0275024 2.41159 11.222 132 92 74
2.14582 2.75074 11.7669 74 48 45
0.468453 3.11851 11.7562 47 13 10
0.44166 3.18186 11.7778 116 90 88
1.45482 3.45079 11.7659 58 16 8
2.46807 3.92302 13.8128 117 84 78
2.41064 4.02231 13.7742 96 73 69
2.34801 3.89963 13.0908 60 27 27
1.34613 3.91514 12.2382 113 82 79
2.20526 4.20389 13.1497 72 44 39
1.40105 4.4068 12.6768 118 71 60
1.48307 4.54543 13.3002 88 46 40
1.35479 4.43776 12.6532 85 46 37
-3.00489 -3.00633 10.22 52 52 30
-0.890088 -3.22298 12.5371 94 102 68
3.19672 -1.74222 11.2463 55 64 46
-0.405718 -0.993861 11.402 68 73 44
-0.378521 -0.970406 11.4488 83 85 58
-1.93098 -0.871905 12.3428 102 101 47
-1.10165 0.306379 10.8901 116 107 56
0.7202 0.462323 10.9368 53 60 48
-1.54346 0.733111 12.0847 122 106 68
-1.11715 0.844173 11.2448 138 120 80
-1.13413 1.00994 11.1713 90 56 32
1.49878 1.25202 10.0499 26 8 2
1.57168 1.43569 10.3242 42 16 6
0.40529 2.32014 11.0826 36 8 4
0.0303563 2.40256 11.2049 106 66 48
0.374903 2.55957 11.25 118 86 76
2.19333 2.67265 11.6773 66 35 31
0.489896 3.55589 12.0765 130 87 78
0.485633 3.62711 12.1651 122 95 88
2.54634 3.91431 13.9176 106 74 66
0.571488 4.02408 12.4327 125 82 76
2.40589 3.88681 13.2753 79 48 44
2.43056 4.00944 13.7387 106 82 78
1.29227 4.29765 12.474 86 36 24
1.06923 4.51366 12.6981 90 43 24
1.39786 4.3872 12.4689 90 52 43
-3.38799 -3.5365 10.0909 122 126 78
-1.1809 -3.57517 12.8005 92 100 67
2.99944 -1.68795 11.2251 73 79 58
-0.626693 -1.37163 11.4905 80 86 57
-0.343437 -1.14085 11.6564 78 82 49
0.451975 -0.460902 10.5692 77 79 44
1.04346 0.246918 9.61063 26 32 14
0.660174 0.460235 11.0438 60 66 54
-0.915677 0.684079 10.7334 115 106 64
1.11129 0.575527 8.96086 101 112 78
1.12601 0.824421 8.68129 90 100 72
-1.33037 1.24328 7.71602 80 78 58
0.32787 2.00458 10.8073 118 85 76
0.426502 2.31111 11.0311 40 12 6
0.449519 3.08575 11.6659 130 100 89
0.486329 3.12112 11.7562 50 14 10
2.43218 3.86047 13.2165 84 52 48
0.657026 4.04734 12.4285 61 18 10
0.576435 4.08499 12.5046 113 88 86
2.43589 4.00388 13.6314 87 62 60
1.32457 4.42246 12.6992 92 51 44
-3.16636 -3.15288 10.1413 39 44 19
-2.17268 -2.44114 10.595 69 71 49
-1.15745 -1.63913 10.9668 76 78 52
-1.17143 0.961457 10.9132 155 126 102
1.07022 0.848913 8.77895 107 116 90
3.16472 1.17973 11.2755 104 78 69
0.324757 1.99916 10.7984 112 79 70
1.3665 3.40212 11.8339 106 82 76
2.53336 3.4576 12.9523 49 22 20
2.57346 3.80434 13.2062 90 58 50
1.30343 3.91889 12.1097 50 17 12
1.74075 4.44111 13.0776 116 78 76
-0.955875 -1.69841 11.4838 91 96 58
1.07929 0.234755 9.53323 30 36 18
-1.267 0.748486 10.8366 120 99 68
-1.67724 0.899805 11.4746 152 138 105
-1.08503 0.974224 11.0228 86 57 40
1.33525 1.63695 10.1234 70 22 6
0.331924 2.3783 11.3003 23 8 4
1.99264 3.49974 12.3172 98 71 67
1.12893 -2.08136 10.6899 92 99 49
-3.10608 -0.814036 12.3877 100 98 50
-1.25432 0.299036 11.1176 120 109 56
0.453565 3.62577 12.1912 108 74 66
2.18843 4.2163 13.28 81 52 48
1.8675 4.37795 13.1101 77 40 34
1.20487 -2.01966 10.4824 92 98 49
-1.39796 0.767336 10.9276 107 100 64
0.413969 3.15652 11.7696 89 60 57
0.44765 3.5963 12.1591 105 62 54
2.07237 4.2589 13.1847 114 88 87
1.10507 -2.05959 10.718 102 108 59
0.988047 0.551798 11.9684 81 79 68
1.83809 4.36385 13.2135 66 31 30
-1.26426 0.351264 11.143 140 135 81
-1.09071 0.363778 10.5401 136 98 74
0.828184 0.483436 11.2909 62 66 54
2.06456 3.49127 12.1379 106 77 75
1.03498 4.54105 12.781 97 50 33
-0.0814331 0.453458 9.49326 68 66 48
-1.17216 0.724685 10.9475 122 87 69
1.2287 1.64977 10.3703 70 25 12
1.32972 3.92988 12.1245 52 18 14
4.16715 -2.91139 11.2701 142 144 96
-2.88005 -1.02876 12.3765 134 132 81
1.30076 3.93426 12.16 50 16 12
-4.01279 -3.87491 10.0308 74 68 28
-0.873799 0.705855 10.4633 127 84 64
-1.15478 0.332084 10.996 144 138 79
1.08066 0.14044 12.1536 104 105 104
1.99916 3.87301 12.3708 93 56 54
0.509566 2.62649 11.2354 26 8 8
1.65564 4.49672 12.7315 110 71 62
1.62624 4.41058 12.7217 91 51 42
0.865174 0.266783 11.9211 117 112 96
-2.83354 -3.11261 10.4283 86 84 45
2.49096 3.90831 13.7438 90 52 46
2.18169 4.17347 13.1615 114 84 80
-0.310345 -0.97009 11.2889 78 80 52
-2.02231 -0.566022 12.2283 145 138 90
-1.04499 -0.75105 10.7184 120 117 62
1.31299 4.35604 12.5575 108 68 56
1.38547 3.839 12.0573 102 64 57
2.18247 4.05008 13.5374 104 74 76
1.42868 2.40786 11.0482 108 84 78
2.21035 2.72173 11.6573 35 16 14
0.455208 2.61713 11.303 31 9 5
0.44936 -0.292485 10.1732 153 150 102
-1.40946 -0.638995 12.4235 101 102 55
-1.3006 -0.621564 12.3376 94 92 45
0.31505 1.78804 10.6111 105 80 74
0.280872 4.03144 12.3111 94 49 28
2.40355 3.89823 13.2953 78 49 46
-0.537977 -1.37739 11.7784 116 120 78
-0.316859 -1.19224 11.9169 106 111 60
-2.28481 -0.942699 12.3654 98 96 50
-1.3086 -0.630064 12.3498 127 126 75
0.249191 2.38332 11.2148 36 11 6
0.388493 2.37683 11.1404 26 6 4
0.28377 4.02104 12.2784 96 52 34
5.07752 -3.29162 10.8528 74 81 40
-1.19296 -1.88689 11.3868 108 112 70
-0.456042 -1.34307 11.6003 104 111 68
-0.256208 -1.16865 11.7976 86 92 44
0.434243 -0.124871 10.0159 42 44 12
0.2614 2.3625 11.1436 24 6 4
0.458525 3.16124 11.7301 119 96 93
0.50119 3.55021 12.0653 122 81 70
0.298017 4.02021 12.2608 91 48 29
3.08449 -1.69328 11.3833 57 66 48
-0.46549 -1.35529 11.6335 110 116 72
0.193946 -0.96515 11.3989 157 154 108
0.451257 -0.274678 10.1689 154 152 107
0.493621 -0.108313 9.90327 40 40 12
2.4965 2.57947 11.9351 46 17 13
2.09893 2.73243 11.6412 54 18 12
2.3562 4.07438 13.7529 82 54 48
-0.504877 -1.35843 11.7013 92 98 57
-0.275069 -1.17288 11.7916 106 110 65
0.330503 -0.928291 11.072 156 155 110
0.409024 -0.125302 10.0427 40 42 14
2.11429 2.70506 11.7538 110 80 76
-0.701276 -1.18704 11.4455 77 79 56
0.365923 -0.923587 10.9827 156 154 108
-2.07576 -0.551471 12.2642 147 140 88
1.83037 4.40625 12.6891 82 45 40
-1.13201 -1.8614 11.2505 112 114 68
0.00490805 2.34851 11.3534 36 12 6
1.28943 3.84582 12.2226 80 32 22
0.787444 4.84413 13.6421 116 68 52
1.8711 -3.53763 12.2651 134 141 98
4.86492 -3.14579 10.9614 157 156 110
4.81269 -3.18513 11.1432 152 152 109
0.484403 -1.50387 12.2931 150 152 104
-0.910436 -0.375731 12.5783 142 145 103
0.354506 1.70814 10.3781 90 48 26
0.392307 2.37953 11.1182 34 10 6
-0.698302 2.96932 12.411 110 86 64
0.994133 2.06168 7.48246 103 111 92
-0.287189 3.04699 11.9025 119 94 74
0.506078 3.04287 11.4964 135 102 93
-2.97573 -3.18186 10.6208 110 108 63
5.04245 -3.35879 11.1199 99 104 55
1.82448 -3.59513 12.4257 120 130 88
1.23142 -3.89618 13.6868 122 128 79
4.86314 -3.25176 11.295 158 156 108
-0.814743 -1.55079 11.7875 105 110 68
0.851763 -1.64022 11.7269 146 148 104
0.427616 -1.54118 12.4308 159 164 112
-0.35801 -1.1329 11.7472 82 88 53
-1.35163 -0.607691 12.5231 149 150 105
-0.941403 -0.373471 12.7583 116 120 74
-1.16875 0.916385 11.5619 127 96 62
0.679428 0.891672 9.86324 16 19 4
-1.05203 1.38069 11.1393 103 56 26
1.09506 1.34571 8.22055 100 109 87
0.230673 1.74254 10.6697 88 46 26
0.351663 1.72139 10.5977 79 36 22
0.889829 1.82497 8.30835 125 129 110
1.01025 1.83179 7.77641 102 108 88
-0.213947 2.41311 11.0984 126 113 88
-0.791151 3.00543 12.6283 88 59 38
0.932169 2.0787 7.60138 100 107 87
0.830846 2.34799 7.45008 81 88 66
0.477106 3.15618 11.688 115 91 89
1.98781 3.86529 12.4613 122 92 89
-0.197985 -2.29291 8.61756 78 78 26
4.09986 -2.61744 11.1788 92 91 69
2.53477 -1.34128 8.45858 90 90 85
0.943798 -1.6075 11.4571 138 140 97
3.90101 -1.46736 12.5878 127 129 86
0.174083 1.75949 10.7955 88 46 26
0.321244 1.73369 10.7069 95 46 26
0.341394 1.75277 10.5204 114 88 82
0.362424 1.81548 10.6626 32 10 4
0.389506 1.98774 10.7794 50 17 10
0.991005 1.83766 7.81787 112 117 98
0.917644 2.09039 7.61473 96 104 82
0.841825 2.92539 7.50094 126 114 98
3.42395 -2.07754 11.133 76 82 60
0.373196 -1.32704 10.6586 148 150 100
-0.802275 -0.354876 12.4444 134 137 91
-0.68319 0.699023 9.80296 129 100 70
-0.768107 1.34536 11.0382 99 59 32
-0.669226 1.68314 11.092 122 103 76
0.163347 1.77875 10.7814 60 20 7
0.494261 1.6985 10.3366 91 42 24
0.3723 1.74518 10.4516 113 88 82
0.281451 1.81261 10.8548 35 8 3
0.0425757 2.29457 11.2368 42 8 2
0.955735 1.8456 7.89135 106 110 92
-0.168371 2.41383 10.9949 117 110 86
0.604789 4.08375 12.4319 108 86 83
1.14146 -1.54507 10.8459 124 130 88
-0.751498 -1.53875 11.6457 132 137 92
-0.634817 1.17404 10.7977 72 40 22
-0.967331 1.35584 10.9208 104 60 32
0.259181 1.75296 10.6835 106 74 60
0.975645 1.63003 8.11694 93 97 77
1.04627 1.82153 7.6808 91 94 74
0.333776 2.57597 11.3583 113 84 74
-0.612292 2.9262 12.1951 132 112 88
1.00631 2.07081 7.41105 84 90 68
2.36612 4.04114 14.1835 110 76 70
0.963208 2.8502 7.28633 132 120 105
-2.09419 -2.61366 10.7171 100 101 55
0.185759 -1.69838 13.0078 132 138 85
0.0319593 -0.423557 11.0935 55 58 26
-0.478178 1.67117 10.6875 104 89 62
0.427645 1.79277 10.5434 33 10 4
0.27222 2.00519 10.8847 80 45 37
-0.314603 1.30741 10.5526 133 92 59
2.23995 3.99028 13.3182 84 46 44
2.21624 4.1778 13.1575 115 84 78
-0.565537 1.02778 11.0886 27 18 10
-0.952325 1.46717 11.1236 158 135 107
-0.393743 2.54663 11.4624 126 122 98
-2.32596 -0.960343 12.4376 109 108 58
2.09663 -0.774566 9.66751 90 98 88
0.73115 0.481615 9.05725 92 95 69
-0.713515 0.744027 8.3648 74 77 50
0.800306 0.479792 11.7129 60 66 51
-1.30762 1.27045 7.68403 88 88 66
1.46784 1.03828 10.1342 46 34 31
1.16968 1.12223 8.34277 106 108 76
1.59534 1.09555 10.1122 44 20 8
0.332296 1.43912 10.6033 103 81 70
0.800352 1.34802 8.22853 114 106 78
0.497472 1.43242 10.3707 47 24 13
1.54975 1.24782 9.95899 50 20 11
0.322235 1.73003 10.5041 86 46 26
1.12067 1.62034 7.87779 100 102 80
1.77347 3.02055 11.504 93 49 42
2.05876 3.50694 12.1661 118 93 90
2.51217 3.99885 14.0289 79 51 45
1.96844 3.98494 12.5609 120 98 96
1.34899 4.26548 12.4664 127 88 78
1.85829 4.37053 13.0478 100 64 57
-2.4 -2.46705 10.4024 60 58 30
2.42374 -1.13424 8.86193 92 95 90
-2.87931 -1.03929 12.3834 134 131 78
-1.7553 -0.328075 12.1758 106 90 54
1.15258 1.1269 8.3713 107 109 78
1.13377 1.12989 10.486 26 12 10
0.544167 1.37976 10.2419 77 52 40
1.59219 1.22902 9.95173 96 66 56
0.295441 1.78995 10.6426 118 92 82
0.93844 2.34375 7.27287 82 86 60
2.13735 2.72035 11.5357 47 18 10
1.41385 3.30987 11.6743 118 86 76
1.35344 3.89111 12.2033 120 94 92
1.39935 4.39959 12.68 96 49 38
1.34741 4.41656 12.6544 80 40 34
1.51345 4.42492 12.8548 90 52 44
1.86596 4.35722 12.9814 74 40 34
1.81008 4.41825 12.9001 83 46 38
-0.44795 -3.06876 12.6262 90 98 54
-1.81165 -2.43289 10.8028 102 102 58
2.42094 -1.12848 8.86286 88 92 86
-0.195007 -0.845573 11.4805 85 87 58
-2.01225 -0.578702 12.2239 144 134 93
-0.59309 0.664265 10.1389 136 96 77
-1.19809 0.96295 10.9482 166 140 116
1.18669 1.12696 10.389 31 16 12
1.60448 1.09902 10.0838 51 26 14
2.99747 0.870789 11.8206 32 6 0
0.371528 1.44843 10.5872 43 17 7
1.12921 1.3736 8.14072 93 96 71
1.12032 1.4101 8.10917 88 89 62
0.4264 1.73407 10.5129 72 30 14
0.309772 1.78001 10.6176 117 91 80
0.967693 2.10122 7.52009 79 84 55
1.47093 2.38669 10.9487 120 92 85
1.44519 2.94582 11.3644 94 48 37
1.32869 3.44762 11.8022 63 18 8
1.05804 2.83474 7.11343 142 130 112
1.34039 3.90807 12.0987 54 20 14
2.39395 3.87809 13.1161 126 100 99
2.19957 4.20142 13.187 94 68 66
1.06075 4.50332 12.724 122 75 56
-2.90758 -3.051 10.3355 98 94 76
1.26795 0.878213 8.59395 23 24 11
1.51676 1.00408 10.6401 94 74 62
0.967354 1.16201 8.62548 92 94 62
1.14192 1.15388 10.4967 20 6 3
1.58907 1.07247 10.4323 14 4 0
0.433817 1.41242 10.3755 73 56 42
3.21181 1.21831 11.6223 91 64 56
0.487125 1.72336 10.4285 80 36 22
0.779901 1.68332 10.3582 132 80 52
1.08306 1.64861 7.9059 88 88 66
0.986631 1.79834 8.09313 120 120 100
0.376453 2.31773 10.8966 24 8 2
2.17788 2.69507 11.4111 51 18 12
0.472691 3.13964 11.6946 111 88 84
1.32971 3.4539 11.7534 60 15 6
2.12229 4.22671 13.1125 124 100 98
-2.76286 -5.23033 14.2584 92 96 46
-3.19968 -3.18023 10.1377 41 46 22
-2.99045 -3.24572 10.2638 132 132 90
-0.944206 -3.24061 12.6083 81 91 56
0.0976458 -0.436214 11.0029 56 60 28
-0.546182 0.597415 10.6693 57 57 39
-1.23189 0.866795 11.2847 84 59 36
-1.06154 0.868868 11.2393 156 143 114
1.53985 1.005 10.5629 94 74 62
3.03409 0.865416 11.629 30 10 2
2.0649 3.05214 11.9333 93 72 68
2.24758 4.17225 13.151 78 51 48
1.31186 4.4312 12.7206 100 64 58
0.514143 -0.0820081 10.9691 74 76 45
0.66747 0.183912 11.6673 27 14 4
-1.12251 0.873301 11.1106 88 61 38
1.17979 0.84899 8.57852 79 86 52
2.99147 0.871177 11.7533 30 12 6
2.91878 1.06344 11.2099 116 85 66
1.43347 1.45276 10.3309 46 14 7
1.45133 1.45813 10.7328 40 16 8
0.929609 2.13336 7.54097 88 91 66
1.3977 3.3385 11.671 98 55 42
1.96557 3.91598 12.5129 108 82 80
0.501531 -0.07344 10.9674 52 58 28
0.722355 -0.0315017 10.8973 50 47 24
0.98623 1.66417 8.02371 84 84 60
1.06437 2.45356 10.9205 37 6 1
0.745235 2.63866 11.1344 24 5 1
1.47086 2.67218 11.0902 93 60 52
0.452931 -0.326281 10.1273 92 93 58
-1.48296 0.375402 10.9706 148 133 78
2.0965 4.21243 13.0956 70 38 36
-1.21284 0.332871 11.0966 135 129 80
2.19728 2.66545 11.5101 122 95 88
1.44863 3.43843 11.7765 56 18 12
2.42653 3.87328 13.1806 78 49 46
1.24065 1.05143 11.0217 67 46 35
-3.45571 -3.55962 10.1283 105 108 65
-3.0478 -3.01186 10.2637 50 50 28
-0.192956 -0.846805 11.4521 80 80 50
1.59196 1.44746 10.3873 47 18 8
2.21553 2.66114 11.4586 88 54 46
-3.13012 -3.17798 10.0833 38 48 24
0.362778 1.18142 10.6986 18 12 7
1.4284 1.00635 10.7098 70 50 41
2.3453 3.97077 13.2285 112 90 90
-2.95499 -2.84331 10.4187 76 75 42
1.09303 4.43272 12.7912 105 54 34
-3.20216 -0.852914 12.5174 122 117 72
5.05683 -3.07973 10.6044 52 58 26
4.5477 -2.99155 10.9799 106 108 68
0.465188 2.57549 11.2282 51 17 12
-3.44961 -3.55576 10.1506 93 98 54
1.41614 1.46917 10.4091 52 18 9
-0.598974 2.96569 12.2905 142 120 98
0.558799 2.58666 11.1575 31 9 3
0.955287 4.0442 12.7017 90 42 32
2.4429 -1.10734 8.7919 95 98 91
-2.67699 -1.02182 12.4714 106 105 54
-3.23427 -0.867699 12.264 49 40 7
-0.443922 3.72852 12.9904 117 80 64
-3.62806 -0.654059 12.5013 96 71 24
3.18494 1.21406 11.7096 50 24 18
-3.12844 -3.12705 10.1259 41 42 18
0.49129 -1.15125 10.8648 154 155 105
-0.145345 -2.23879 8.56596 88 90 44
-0.567704 3.27433 12.6099 145 128 107
0.467887 2.65811 11.3194 22 7 4
0.0356134 -2.1714 8.40066 68 76 28
