ply
format ascii 1.0
element vertex 1367
property float x
property float y
property float z
property uchar red
property uchar green
property uchar blue
end_header
-1.27253 -0.67497 11.711 168 172 126
-1.58392 -0.484807 11.537 166 160 126
1.68626 1.23264 9.67811 119 86 81
1.5757 1.42797 9.87412 54 22 14
-1.93887 -2.51076 10.1709 154 153 113
-2.14055 -2.31474 9.97985 92 88 58
2.7142 0.950178 10.9961 34 18 11
3.05093 1.04187 11.3715 127 105 96
1.67894 1.26342 9.7846 116 83 74
-0.00327051 1.53933 10.2367 114 70 48
3.59448 2.64518 9.84164 122 95 82
-0.803925 -3.28067 12.0213 135 138 106
-1.61025 -0.507809 11.5111 160 158 121
3.16375 0.293163 11.7516 149 131 108
2.17449 1.82884 10.5427 42 18 12
-2.2585 -2.52699 9.83582 138 132 108
-1.77903 -2.41475 10.474 173 176 134
3.14977 0.309067 11.7547 142 122 96
-0.277787 1.21205 10.3631 64 37 27
0.700539 1.04201 8.46837 22 13 8
3.5843 2.62119 9.76826 120 94 79
3.81903 -1.38989 12.3276 107 105 62
3.27745 0.689892 12.7132 116 78 61
0.728902 0.528388 8.95091 128 130 99
1.13698 0.641843 8.80055 151 156 132
0.608829 2.99411 11.2708 66 30 22
0.566564 3.05144 11.3058 138 116 110
-3.47525 -3.63074 9.54278 126 119 76
-2.60388 -3.00922 9.84831 148 144 110
1.14233 0.390038 9.00181 152 158 134
0.54881 2.49967 10.8072 59 24 16
2.14623 2.86299 11.4057 154 132 132
3.58974 2.65035 9.8233 121 92 77
-3.47128 -3.63162 9.55029 134 126 81
-2.77131 -3.1387 9.71499 153 156 107
-1.15493 -3.79183 12.329 108 115 82
-2.68147 -2.96496 9.68751 84 84 62
0.225764 -1.75807 11.3714 142 148 114
-0.96127 -1.55056 10.5227 106 108 84
1.93675 -0.322056 11.252 188 184 154
3.12456 0.42439 12.4927 57 27 10
2.25864 0.798577 11.1228 71 60 45
3.45414 1.6172 9.55523 160 156 138
2.20579 2.34403 11.0387 129 102 101
-2.65848 -2.84464 9.67355 83 79 58
-2.39309 -2.77658 9.87759 122 122 104
-1.80129 -2.24027 10.1324 110 112 88
0.750856 1.09401 8.41397 134 106 84
-2.75376 -2.94675 9.80726 92 91 72
4.9453 -2.91201 10.493 80 78 50
3.78887 2.56001 9.48182 190 179 176
3.83371 2.61847 9.48921 96 63 48
-2.71952 -2.9906 9.74131 82 82 61
1.77991 -0.177369 11.2481 52 34 24
0.750991 1.10818 8.39878 147 125 101
1.02642 1.69332 11.4183 191 148 128
-2.80254 -3.14072 9.75088 86 90 56
1.75569 -0.176081 11.2378 64 51 41
2.82574 1.06194 11.0307 85 69 52
1.68027 1.3521 9.87662 78 46 36
3.65777 2.60795 9.73571 195 183 176
2.87809 0.956094 11.2499 44 20 6
0.497855 2.47459 10.8249 129 100 92
-2.65985 -2.85553 9.64249 80 77 50
0.53211 2.2319 10.4817 38 15 12
0.434512 2.51517 10.9632 84 52 43
-2.3825 -2.56235 9.84435 73 76 52
1.22504 1.31371 8.58767 154 118 101
-0.540476 -0.251645 10.4651 150 146 111
-1.35191 0.974048 17.5412 47 38 20
3.66646 -0.519248 12.2939 172 162 132
2.2655 -0.117662 7.3672 112 85 56
2.94745 -4.49442 12.2289 112 116 72
2.94124 -4.49041 12.2163 122 126 82
0.227707 1.17271 10.1014 100 83 82
0.456819 1.38033 10.1142 74 49 38
1.94435 2.74909 12.8439 81 49 42
1.49659 1.18345 7.83468 145 128 106
0.515963 1.45267 10.3062 114 76 62
2.21717 2.09413 10.9534 95 67 64
2.1813 1.22322 10.5337 31 13 4
0.382924 1.41929 10.1977 62 22 10
0.454784 1.41283 10.2547 102 76 66
0.37765 1.41278 10.2222 62 24 12
4.48365 -2.68027 10.2196 170 172 128
-2.05256 -2.33283 9.9718 126 122 102
-1.6948 -2.02691 10.0842 124 121 99
0.527111 1.72654 12.3983 81 53 43
1.35134 6.38361 29.1946 66 30 24
2.70805 3.61208 13.554 101 58 52
3.03243 0.993335 11.4605 131 99 79
2.24423 1.34459 11.2509 110 83 68
2.22946 1.35318 11.3371 106 76 61
3.3121 -0.886617 12.3748 184 196 153
2.99843 0.978971 11.4247 140 107 86
3.54746 -0.725807 12.4012 70 58 22
2.97321 0.0355178 12.796 133 110 86
-2.74109 -3.10507 9.63069 132 132 87
-2.59571 -3.01696 9.85244 154 152 110
0.0173012 0.502458 9.29103 120 122 104
-1.02735 0.844879 8.28008 179 179 145
-1.03673 0.889967 8.07743 188 186 158
0.75925 1.05776 8.69687 42 38 17
1.5471 1.26795 9.78146 58 28 16
1.57641 1.30355 9.78879 155 120 112
0.771353 1.34458 8.28706 178 154 128
1.54669 1.46196 10.0651 80 46 36
3.28681 1.44286 9.73423 120 122 96
0.00164127 1.6549 10.1294 150 105 85
3.59803 1.81652 9.5043 130 125 98
-2.54486 -2.82351 9.79568 110 106 84
-2.41927 -2.83784 9.91252 109 106 84
0.0142303 0.506044 9.32983 120 122 104
0.74188 0.755232 8.88243 52 52 25
-1.01726 0.847766 8.18726 188 188 158
1.57923 1.13766 9.91103 63 30 14
1.68841 1.1659 9.77469 92 76 70
0.754379 1.29 8.23454 70 38 24
1.49651 1.44839 9.9353 122 102 96
0.774962 1.50125 8.30158 180 146 120
1.15621 1.74155 7.99842 108 111 92
3.80896 2.54887 9.43335 208 194 184
-2.72068 -3.08765 9.57692 146 146 100
-1.14198 -1.46047 10.1592 152 150 125
0.740884 0.798537 8.761 140 136 111
1.54044 1.26218 9.7417 53 26 17
1.49772 1.44165 9.90296 125 106 98
0.960104 2.10937 7.51997 138 140 126
-2.64002 -2.88137 9.60019 133 130 110
-2.12444 -2.31094 9.94005 94 90 62
-1.03602 0.852835 8.19587 191 190 163
-1.06816 0.903866 8.1252 169 166 140
1.14725 1.12008 8.53761 68 67 48
1.69014 1.1716 9.82258 102 84 78
1.74537 1.24117 9.81601 31 16 9
1.68911 1.26724 9.83093 112 82 76
0.781638 1.6517 8.00383 136 106 90
0.958352 2.10887 7.50499 132 138 122
-1.7423 2.92553 6.94095 139 130 117
-2.5787 -2.78318 9.79629 92 92 62
-2.22553 -2.74757 10.075 144 141 96
1.74621 -0.0725125 9.70316 170 170 148
0.727736 0.534486 9.14311 136 138 116
-1.08004 0.863408 8.38567 192 190 165
-1.08012 0.915588 8.14551 180 176 152
1.45466 1.11408 10.041 36 21 10
1.49343 1.24696 9.60877 30 14 8
0.755043 1.33239 8.16502 191 156 136
3.62076 2.66526 9.93672 150 126 112
3.87761 2.56403 9.46015 126 86 58
3.83067 2.63223 9.61279 92 62 36
-1.07294 0.867208 8.2109 194 191 170
1.20838 1.19222 9.18055 98 84 72
1.68143 1.29303 9.95485 106 76 67
1.58324 1.44209 10.1881 68 32 24
1.17107 1.45253 8.73023 164 142 122
3.8913 2.54229 9.49386 135 91 61
-0.251553 1.13554 9.37846 94 74 64
-1.7833 2.90776 7.03335 170 162 148
-1.92293 -2.43563 10.1404 131 132 106
1.68996 1.169 9.81264 110 92 88
2.52017 1.35983 10.1394 133 118 106
2.25199 2.07831 10.8559 136 111 109
2.76216 2.53526 11.957 34 15 11
2.15086 2.8472 11.3416 153 130 129
1.78922 4.2777 12.4361 126 94 91
-1.74465 2.92493 6.94323 131 122 108
-1.90049 -2.45541 10.183 97 100 62
1.4593 0.196775 4.39419 126 126 94
3.43855 0.579664 11.6618 148 146 118
2.28046 1.38117 10.4062 76 50 32
0.940815 1.39597 8.13542 101 109 80
2.75863 2.54426 11.938 40 22 19
2.65122 2.57879 11.8392 80 52 48
0.962528 2.10863 7.53966 136 144 128
2.14264 2.85584 11.3714 138 117 114
1.76015 3.06777 11.246 147 104 102
2.05465 3.3852 11.7459 134 106 104
1.74689 4.17938 12.2555 119 83 80
-0.793434 -3.27021 12.0517 138 142 108
3.73149 -0.806884 12.5291 130 112 76
0.961475 0.90935 8.59749 101 110 70
3.8862 2.53247 9.37397 128 98 79
3.8112 2.59043 9.46332 88 58 42
1.993 3.79879 12.082 151 126 122
-2.67934 -2.90749 9.67872 104 104 82
3.41362 0.58579 11.5446 149 142 116
1.13435 0.887457 8.62187 130 136 114
0.768769 1.3439 8.24671 176 150 125
3.39072 1.94882 9.39688 92 92 74
3.66008 2.64038 9.7851 186 172 162
3.64879 2.64652 9.56386 92 63 47
-0.446117 1.1619 10.5754 116 100 94
0.878015 1.03408 8.47794 96 102 66
1.73824 1.23007 9.84651 24 12 8
1.5695 1.24295 9.71769 125 91 82
3.50005 -0.538085 12.1274 178 178 138
3.42698 0.572026 11.5032 147 148 114
-0.442018 1.16971 10.901 183 173 183
0.750175 1.09827 8.52256 125 112 93
1.5592 1.29576 9.81727 107 74 63
2.11285 1.39043 10.0635 150 108 89
-0.00675672 1.65072 10.3317 176 131 112
3.77961 2.54272 9.43168 191 186 178
1.5447 3.91461 11.2181 96 58 48
1.76452 4.29821 12.4666 137 109 106
-1.80171 -2.42648 10.2955 122 124 80
3.66029 -0.604202 12.048 142 109 79
2.87755 0.0572023 12.1571 154 142 106
-1.12399 0.862951 8.30831 184 178 154
1.55734 1.29303 9.81777 84 52 40
-0.015383 1.55664 10.3502 124 78 52
-3.11603 -0.59214 11.7341 148 130 80
-1.67394 -0.506729 11.6194 184 184 139
1.72223 -0.198412 11.6162 100 91 78
-2.36268 -2.76412 9.8836 120 120 98
-0.156463 -2.34248 11.6434 126 138 95
0.195835 -1.79312 11.4198 141 148 113
-1.53671 -0.75149 11.6377 132 136 95
0.966052 0.906791 8.53876 112 123 84
1.48149 1.47948 10.0936 84 56 46
1.84321 4.20483 12.3669 138 98 94
-2.37061 -2.7695 9.87592 124 125 102
-2.35117 -0.917489 11.6892 179 178 128
3.48134 1.65947 9.57769 174 172 150
0.497232 2.51198 10.8587 134 111 106
0.540292 2.51711 10.886 54 30 26
-1.55411 -2.24874 10.389 124 124 82
0.196651 -1.78615 11.4409 141 148 113
1.15502 1.73798 7.94866 102 106 87
0.699307 2.19988 10.5337 105 66 58
1.86568 4.09648 12.0137 125 86 82
3.64088 -0.902279 12.4815 131 128 87
0.502337 2.50204 10.8428 136 113 108
-0.0402684 3.44137 11.9637 108 59 48
0.934306 4.51086 12.8666 128 92 78
0.489951 2.50168 10.8656 134 108 102
3.85688 2.60683 9.44378 128 92 68
1.4593 1.46661 10.3297 52 26 18
1.19684 1.30426 8.38383 78 53 38
-1.91114 -2.46295 10.1939 98 99 66
-0.352139 -1.02054 10.8317 122 122 98
-0.106373 -0.882292 11.0006 101 104 74
1.81321 4.31895 12.3991 126 90 85
2.93126 -4.48755 12.2599 112 124 80
2.21175 2.35099 11.0178 136 112 109
-1.74428 2.92705 6.94248 124 115 100
-2.686 -2.9811 9.68955 88 87 66
-2.70112 -2.90413 9.65923 71 73 49
-2.71878 -0.740815 11.5418 86 74 45
2.25475 -0.132544 12.6217 56 35 18
-2.66169 -2.95711 9.65854 90 88 67
0.199908 -1.86873 12.1588 134 135 116
-2.79683 -3.15026 9.75949 118 116 76
0.399065 2.32609 10.9565 36 12 8
0.863545 1.39266 11.2796 73 43 34
-2.50967 -2.86312 9.9974 100 100 80
1.59707 1.33395 12.4472 40 30 23
3.01287 2.58467 13.219 58 34 26
-0.645313 3.06424 12.1462 126 98 76
1.59869 0.0861563 9.71633 111 92 67
-0.322556 1.3174 10.9803 50 28 18
-1.7516 2.87942 6.95207 114 108 88
3.79539 -1.36558 12.2774 126 124 80
2.30008 1.33858 10.3922 99 76 64
-2.46785 -2.7362 9.40301 86 86 64
3.80769 -1.37728 12.3845 102 94 53
3.80222 -1.39311 12.4869 127 124 79
-2.37116 -2.55791 9.8447 79 80 54
1.83277 -0.915751 17.7099 123 131 98
3.01465 1.00775 11.7237 122 96 76
-2.27216 -4.89627 13.6431 132 134 76
3.78142 -1.33893 12.3738 100 92 48
3.25412 1.02707 12.1424 111 76 54
0.732854 1.29949 8.15124 78 39 24
2.22274 1.33699 10.4869 51 28 14
2.92336 -4.40817 12.061 94 102 59
-1.22056 -4.0025 12.4618 116 116 69
5.15795 -3.02629 10.3011 92 95 67
4.76348 -2.90058 10.721 138 136 94
1.91633 0.145771 1.08793 130 130 87
-1.5519 -2.25993 10.415 111 112 67
0.445205 -1.91266 11.6496 152 153 108
3.22968 -1.67055 10.6754 86 94 70
2.18297 -1.15484 8.4699 116 119 81
-0.472179 -1.37684 11.0831 118 120 79
2.84068 -1.32136 10.813 96 100 81
3.72309 -1.2918 11.8489 86 80 36
3.8104 -1.28614 12.189 79 68 34
-0.0674589 -1.0657 11.368 114 120 72
-0.0931497 -0.998134 11.1453 96 99 66
2.02894 -0.511147 11.0291 112 115 102
3.42863 -0.566615 12.2578 154 157 119
1.14286 -0.242769 9.81624 144 147 118
0.186017 -0.272118 10.6402 120 120 94
0.220005 -0.22381 10.3441 106 106 75
2.13528 -0.445714 13.5529 160 160 121
2.72817 -0.365091 12.5366 154 163 124
1.12966 -0.0647956 9.58521 132 136 113
2.02139 -0.327971 13.4876 166 159 124
1.92862 -0.293572 13.2455 116 104 79
1.96521 -0.212976 13.4004 40 16 2
-1.17316 0.0588117 12.6348 171 156 120
2.98288 -0.0828942 13.0587 164 158 124
1.44253 0.299551 11.8076 68 61 56
-1.22074 0.365298 12.4973 52 37 12
-0.138542 0.431694 12.4573 88 94 78
3.22219 0.357621 12.5664 152 127 94
-0.0858935 0.596283 10.8085 90 92 84
3.03943 0.557437 11.809 50 28 12
3.45234 0.59543 11.8742 108 106 79
-0.923159 1.00736 10.6069 84 42 26
3.26202 0.954505 11.3497 113 71 50
-0.46619 1.08065 10.724 165 154 146
1.51688 0.989902 10.2761 80 62 48
2.69646 0.966825 10.6958 24 15 4
-0.35741 1.1639 10.655 136 124 129
3.25605 1.06998 11.3723 98 65 49
2.94264 1.13777 10.5799 116 96 78
1.72358 1.26716 9.85255 26 6 4
1.28081 1.63835 10.0601 77 30 8
1.48827 1.62404 10.2719 71 34 20
2.31125 1.78329 10.625 80 58 55
2.51648 1.98914 11.058 60 32 28
1.15851 1.73819 8.01716 84 88 68
1.48972 2.3627 10.6111 123 100 92
1.47776 2.61057 10.8389 128 101 96
1.47348 2.65133 10.8808 126 101 95
2.68386 2.88228 12.2401 68 34 28
2.57862 2.94133 12.027 50 20 15
2.43951 3.34337 12.2208 66 34 30
2.07194 3.32472 11.7192 126 98 98
1.47376 3.64543 11.665 82 34 27
1.43713 4.17301 12.0818 70 30 24
-3.51506 -3.6586 9.63476 100 94 50
2.92104 -4.47013 12.2041 95 103 63
2.80668 -4.40555 12.126 152 155 107
4.9646 -3.01314 10.5232 87 88 44
4.96422 -2.83107 10.3901 64 66 36
-0.814942 -3.30052 12.1554 109 114 82
3.2305 -1.67106 10.663 80 86 62
3.04085 -1.50398 10.7321 84 89 72
-0.455763 -1.36712 10.9926 121 124 81
2.69887 -1.17898 10.8597 84 90 72
3.88477 -1.37418 12.5676 134 132 92
2.49817 -0.99548 11.1521 100 104 90
3.74812 -0.731965 12.3279 169 157 122
3.51016 -0.60775 12.5381 112 106 72
2.44073 -0.549554 13.2892 80 73 41
1.88864 -0.30054 13.137 108 98 80
2.01948 -0.339237 13.5908 159 154 118
-1.29135 -0.034049 11.1242 131 105 76
1.61593 -0.105563 11.121 98 102 90
-1.30722 0.111201 10.6827 124 73 46
1.47855 0.0645439 12.0683 65 60 52
2.82787 0.0641043 12.41 85 71 42
-1.27948 0.245837 12.7882 122 98 76
-0.649916 0.280517 12.2581 32 22 6
1.43843 0.298632 11.8598 94 90 83
3.22689 0.303062 12.6907 65 36 7
3.18769 0.554189 11.5042 87 47 18
-0.534025 1.02832 10.7958 30 13 4
-0.506333 1.04267 10.889 127 120 110
-1.28051 1.18038 7.82602 115 110 80
-0.551607 1.32996 10.6331 88 50 24
1.73128 1.25731 9.74669 18 4 2
2.30628 1.33003 10.403 90 72 59
2.46859 1.35563 10.3007 133 112 104
2.53825 1.37869 10.078 121 100 92
3.30901 1.43733 9.79041 112 112 92
-0.316349 1.65251 10.4698 62 26 17
3.31309 1.4581 9.67149 144 144 126
1.56411 1.86873 10.308 28 7 4
2.24803 2.08002 10.8673 96 68 66
2.0637 2.24711 10.7471 102 72 68
1.47611 2.61295 10.8478 113 84 78
2.17408 2.62646 11.1906 104 74 70
2.2231 2.64121 11.296 38 20 18
2.14429 2.84318 11.3308 120 98 96
2.09085 2.86996 11.3896 54 26 21
3.83059 2.62643 9.57182 65 37 14
2.4994 3.35597 12.4719 124 90 86
2.50027 3.24562 11.9154 100 66 61
1.53449 3.13038 11.0567 90 46 40
1.44195 4.1452 12.0186 70 30 26
1.66328 4.22112 12.2532 68 32 28
-1.22334 -4.01312 12.4723 142 141 96
-2.33705 -2.53705 9.85245 62 63 40
-0.275976 -1.23083 11.1811 136 141 99
2.70503 -1.18071 10.8029 70 76 59
-0.324413 -0.648982 10.5943 100 102 74
-0.305469 -0.606249 10.5857 66 69 38
2.32418 -0.368014 13.5448 167 170 129
-1.23671 -0.0652056 11.1624 159 152 110
2.14269 -0.257894 13.5327 102 74 52
2.52007 -0.230082 12.8958 164 173 133
2.08309 -0.193618 13.532 58 29 18
1.26177 0.190482 11.5804 120 122 116
-0.908633 0.221049 12.8555 157 150 112
-0.670566 0.272386 12.4025 34 22 8
1.43622 0.293563 11.8589 88 84 78
3.0776 0.248082 12.7983 155 136 113
3.04067 0.305237 12.4527 59 33 14
0.103827 0.592643 9.57167 74 76 66
3.19403 0.545469 11.4195 82 37 11
3.04956 0.883433 11.2926 87 49 25
2.94116 0.948969 11.2962 45 20 6
2.7982 0.914081 11.749 22 13 4
-0.516653 1.13372 10.8718 40 24 12
1.56795 1.46267 10.227 42 15 8
-0.870452 1.7587 11.6469 126 90 68
3.29964 1.43439 9.76464 110 112 89
1.4765 1.6268 10.1853 96 58 44
2.33308 1.7825 10.7308 58 36 33
2.25819 1.86578 10.839 26 8 6
-0.828403 2.52466 12.4961 132 110 91
3.59041 2.59739 9.77707 140 122 112
2.49986 3.32929 12.3812 122 86 82
0.415534 3.87408 11.5867 48 24 10
1.40088 4.12099 12.0771 116 78 72
1.79175 4.15617 12.1395 108 76 73
-1.80549 -2.44436 10.3558 111 116 69
3.31848 -1.32222 6.52397 150 147 111
-0.463805 -1.38571 11.0639 145 146 100
-0.283241 -1.23512 11.1758 126 131 91
-0.0593707 -1.05629 11.3114 141 146 97
-0.310834 -0.644749 10.5047 96 98 70
-3.07506 -0.582748 11.624 106 82 37
3.76567 -0.743705 12.4979 170 156 120
2.02917 -0.521246 10.9631 74 77 62
3.6969 -0.644201 12.1283 95 64 34
3.55007 -0.488353 11.9626 167 170 130
2.68807 -0.359019 12.6776 140 152 109
0.43253 -0.110233 10.4709 90 86 64
1.11717 -0.070291 9.97808 74 78 57
2.64732 -0.313404 12.6383 164 176 134
2.51378 -0.229146 12.9161 162 172 131
1.93501 -0.195711 13.1485 31 14 3
2.98199 -0.0634823 12.7788 165 168 130
3.47458 0.0457362 11.5651 164 124 110
-0.615169 0.209013 12.0735 156 146 122
-1.09836 0.281401 13.3479 58 28 11
-1.21237 0.335026 12.5284 47 26 4
1.41397 0.64558 11.9227 12 8 2
3.06367 0.593205 12.0005 82 63 48
3.28826 0.681414 11.4738 128 80 64
3.03646 1.00334 11.1974 56 25 6
3.23202 0.999802 11.1622 142 107 94
3.236 1.07807 11.178 106 74 58
3.03951 1.19349 10.4712 144 120 104
1.67418 1.29926 9.82882 102 68 60
0.0267784 1.53249 10.1657 102 56 29
-0.298669 1.64689 10.3987 64 28 18
2.55274 1.68827 10.5877 62 31 28
2.78032 2.14019 11.5536 110 84 80
2.20952 2.33805 11.0403 106 82 81
2.27344 2.34937 11.0515 43 22 18
1.48578 2.34919 10.6598 96 68 61
1.4797 2.62699 10.8127 116 90 84
2.57891 2.95537 12.1279 46 19 14
1.47813 3.67769 11.7744 78 27 22
1.45823 4.1654 12.0888 70 28 24
-2.80367 -3.15357 9.7543 100 104 63
-1.78146 -2.41301 10.2478 106 110 64
2.83075 -1.32034 10.7587 58 64 40
1.70143 -0.168004 11.7602 55 46 36
1.89989 -0.189979 13.0131 28 11 2
-1.20298 -0.0354668 12.7926 66 36 12
3.68609 -0.0906299 11.7472 162 124 113
3.54907 -0.0292736 11.3632 184 146 136
2.85683 0.0260947 12.4513 91 74 40
-0.988226 0.200445 12.4658 56 24 2
-0.831245 0.218051 13.4493 30 20 10
-0.438037 0.265323 11.8544 20 13 4
3.01523 0.703972 11.4381 38 19 8
2.46078 0.865844 10.9834 53 48 35
2.90739 0.913696 11.1105 52 23 14
2.63453 0.961093 10.6024 45 42 30
2.89164 0.965305 11.1681 104 82 72
2.96692 1.01194 11.1826 142 118 105
-0.527844 1.17215 10.5234 80 50 28
3.23768 1.07783 11.2131 99 66 49
2.46651 1.32814 10.308 96 82 70
3.12287 1.3054 9.83582 44 46 24
2.08992 1.38559 10.1186 146 107 88
2.58005 1.42322 10.0329 158 138 136
0.01616 1.53632 10.1887 102 57 30
1.53497 1.54795 10.2445 174 144 141
2.34492 1.82845 10.7485 16 8 4
2.30157 2.09469 10.9695 32 14 10
1.48337 2.35343 10.6936 107 80 73
3.68641 2.63764 9.76512 168 162 154
2.55567 3.34865 12.5981 84 48 41
-2.43262 -2.83847 9.91808 98 96 76
-2.02959 -2.24312 9.97978 62 66 38
1.87409 -0.205431 13.1202 28 12 3
-1.0478 0.213281 12.7427 56 25 4
-1.08756 0.301515 12.6376 107 86 66
3.40379 0.580497 11.3402 113 115 83
3.03339 0.691504 11.604 44 26 15
-0.598141 1.00642 10.9876 44 28 20
1.51408 0.996745 10.1748 65 46 31
-0.0295441 1.66466 10.5215 158 113 90
0.751856 1.47419 8.25941 170 124 92
1.2898 1.65471 10.0759 85 38 15
-1.0331 2.0212 12.2335 124 102 76
2.3599 1.81191 10.6653 18 8 5
1.50023 2.0814 10.4445 100 75 70
2.24409 2.63173 11.3271 38 18 16
2.08022 2.90691 11.5096 57 28 22
3.80046 2.61643 9.44704 65 38 16
2.05785 3.34289 11.7086 98 70 70
1.41244 3.71838 11.8045 101 70 64
1.29763 4.0773 11.8255 72 26 13
1.72191 4.36176 12.7483 138 108 105
-1.16074 -3.95926 12.7284 132 138 94
-2.02677 -2.24915 9.99457 60 64 37
-1.55964 -2.25019 10.4038 87 90 50
-0.944873 -1.74503 10.9487 126 130 90
3.65081 -0.896151 12.421 138 142 100
-3.16194 -0.60719 11.8088 120 102 52
3.68173 -0.44871 11.5862 164 130 109
-1.39841 -0.192889 12.0719 72 42 18
2.495 -0.294814 13.4697 164 175 130
2.2001 -0.241139 13.435 116 88 56
-1.19968 0.0809842 12.7175 144 132 92
-0.988855 0.3922 10.8044 167 154 106
3.04846 0.443142 12.1276 32 12 2
-0.757354 0.730545 11.4639 44 38 22
3.03266 0.695847 11.8995 40 22 9
3.22597 1.06733 11.1629 124 92 77
2.01708 1.38684 9.84272 162 122 103
-0.845238 1.7639 11.3468 161 147 122
1.10805 1.51937 8.23042 37 46 28
0.78752 1.63463 7.88062 93 58 40
1.46575 2.09199 10.5244 48 18 11
3.78359 2.55685 9.52765 170 160 151
3.60872 2.67046 9.96156 138 119 107
2.74755 3.46142 13.329 90 54 46
1.21191 4.24474 12.1523 147 100 84
-1.59516 -2.28286 10.4659 130 132 85
2.33879 -0.599843 13.5271 152 152 118
1.93839 -0.327895 13.5 132 122 96
-0.918599 0.284105 11.8616 154 131 110
-0.923783 0.393565 10.5723 158 146 96
-1.24077 0.494897 10.4752 158 158 104
-0.389143 0.726894 10.7315 18 8 4
-0.523265 1.02526 10.9225 84 74 64
1.65682 1.22205 9.69049 78 40 28
1.86354 1.43348 10.0707 160 127 116
1.55752 1.51859 10.0478 176 146 143
2.75308 1.8946 11.1397 75 49 44
3.67722 2.65947 10.0046 130 108 96
3.78722 2.60299 9.46174 73 48 32
2.12849 3.92616 12.7915 80 45 45
-2.80653 -3.16664 9.73205 154 158 108
4.99976 -3.00925 10.4224 114 117 72
-2.60666 -2.78561 9.77933 56 54 26
-0.883677 -1.71362 10.8481 104 106 62
0.500496 -1.31663 9.73442 124 128 83
2.48254 -0.957256 10.8987 101 104 92
-0.689184 0.858217 7.99662 80 87 65
3.1801 0.787408 11.3815 108 67 42
2.22255 2.31103 10.9815 130 110 107
2.14767 2.85019 11.3652 130 112 112
2.13146 2.96688 11.4274 118 94 94
1.97956 3.85254 12.1327 120 94 94
1.6299 4.21533 12.2229 113 76 73
1.66627 4.21493 12.2779 71 36 32
5.00349 -3.0127 10.4451 126 128 82
4.75546 -2.89088 10.6612 173 174 126
-0.888767 -1.7187 10.8837 110 111 66
3.58318 -0.7566 12.3143 68 48 16
2.97718 -0.60081 12.5914 162 168 126
3.04629 0.28575 12.5099 96 70 49
3.10674 0.610631 11.3143 127 97 82
-0.679835 0.856569 7.95744 78 84 61
1.48273 2.37081 10.6761 114 88 82
1.97583 3.85034 12.1454 114 88 86
1.80107 4.27048 12.4044 104 72 66
-2.67337 -2.92543 9.67995 104 104 84
3.37336 -0.881564 12.5379 164 174 132
3.43004 0.588773 11.6124 128 122 96
3.01253 0.927317 11.3473 121 82 58
-0.235591 1.51839 10.4837 126 80 57
1.173 1.72228 7.89716 68 76 56
1.47922 2.36305 10.6971 114 87 82
1.45882 3.22524 11.2951 128 102 98
1.40213 3.33937 11.3758 50 12 4
1.37236 3.66389 11.6498 80 30 19
1.34638 4.10048 11.9546 88 38 28
1.27415 4.21018 12.1369 126 78 62
1.59203 4.2246 12.2643 98 60 56
-2.36116 -2.55495 9.85696 54 56 34
3.576 -0.749336 12.3215 54 34 9
2.12377 2.93604 11.3639 98 78 76
1.44372 3.28957 11.3458 120 96 94
1.4439 3.66458 11.664 98 61 56
1.75686 4.17077 12.165 128 94 90
1.26157 4.2077 12.1139 138 90 74
1.66597 4.21712 12.2386 72 38 32
1.82378 4.26872 12.369 87 52 46
-2.20638 -4.78031 13.3094 86 89 34
-2.45652 -2.80738 9.82448 109 108 88
-0.624575 -2.99844 12.018 96 103 68
-0.903764 -1.70474 10.8302 89 93 54
2.82584 -0.456696 12.7517 158 169 124
0.724727 0.538674 8.99654 101 101 76
-0.572809 1.02278 10.9082 46 30 22
2.87015 0.934376 12.1602 30 16 8
-0.501844 1.07932 10.8028 126 119 110
1.34191 3.7176 11.7875 70 22 14
1.2426 4.21899 12.1144 128 78 64
-1.14102 -1.91735 10.7785 128 128 84
3.51037 -0.578301 12.296 64 50 20
1.53145 1.53574 10.1142 171 142 138
1.46795 2.63362 10.8417 102 76 71
1.4377 3.2531 11.2962 103 74 67
3.67731 -0.605635 11.9872 108 73 42
1.55096 1.54316 10.0425 173 144 142
3.72951 -0.349169 11.8011 128 88 65
-1.16453 0.0645436 12.6142 148 133 96
3.18906 0.252038 11.5774 124 110 74
1.39345 0.648081 12.0479 14 11 3
1.45055 3.21116 11.3108 122 96 92
1.43208 3.65576 11.6376 126 96 94
1.73632 4.18011 12.2714 83 46 42
1.60653 4.21639 12.2492 103 66 64
2.9738 -0.0637385 12.777 164 154 126
-0.89684 1.68542 11.39 74 40 20
-1.10893 -1.89599 10.7201 113 114 70
-0.689779 1.48735 10.8763 128 88 60
-3.44641 -3.60107 9.4957 88 84 44
-2.20982 -2.73746 10.0531 107 104 58
1.99789 3.75482 12.0433 127 100 97
-2.58968 -2.77917 9.76574 56 54 27
-2.79285 -3.14938 9.7461 94 98 58
-0.947543 2.51748 12.444 145 130 108
0.024575 -0.719715 10.9975 91 94 60
-2.35334 -2.54957 9.86013 54 56 32
-2.00323 -2.58087 10.2049 90 87 49
0.843318 1.70298 16.8924 104 94 79
2.69087 0.982597 10.5574 24 20 10
-2.35695 -2.56513 9.77333 64 64 40
2.56188 1.00904 7.34787 140 116 92
-0.748167 1.32337 10.6562 148 106 73
1.43988 3.3242 11.3242 88 53 48
-3.06335 -0.655219 11.8578 120 105 52
-2.26561 -2.5219 9.84963 107 103 80
0.338062 1.447 10.51 48 16 6
-2.67535 -2.90475 9.68879 114 114 96
-2.10888 -2.42697 9.96442 100 100 76
2.25683 1.85997 10.6728 30 8 5
1.48777 2.35898 10.6857 123 99 96
-0.0303518 4.0659 12.7298 80 41 27
-1.71403 2.87313 6.8971 78 69 46
0.1659 2.34178 10.7992 112 70 52
1.14313 1.1892 8.20945 112 115 94
-1.71282 2.85067 6.905 65 58 30
-1.72756 2.8965 6.91649 99 88 68
0.428093 -0.714676 11.1444 162 162 115
2.94603 -0.0922907 12.7339 148 140 116
-2.69381 -2.90447 9.59088 54 60 38
-0.0840191 5.49564 17.7062 64 24 16
1.4793 3.9904 11.4517 74 30 20
3.59134 -0.781561 12.575 72 56 24
3.8477 2.60788 9.43739 101 68 50
-0.733281 0.703522 11.1995 112 110 84
-1.13952 -0.0138212 13.2036 148 149 106
-0.657124 0.870642 11.5517 74 62 42
1.7054 -3.19817 12.5541 148 154 108
3.12461 0.496831 11.6207 80 54 36
2.9394 0.898533 11.2152 55 26 11
2.93929 0.90371 11.243 53 24 10
3.06804 0.540255 11.1767 80 58 40
-0.925381 1.51811 11.4755 82 46 22
0.767723 1.4707 8.04856 163 116 84
0.585689 1.56092 8.25484 106 68 52
0.681557 1.56752 8.12164 68 32 19
1.7606 4.47828 13.473 86 53 51
3.51517 -0.750708 12.5421 55 42 14
-2.9331 -3.27139 9.60946 93 94 48
-2.62522 -2.92167 9.61897 72 72 52
-0.867794 -3.62889 12.3392 116 121 76
-2.20942 -2.73957 10.0545 94 94 52
-1.75863 -2.37312 10.2771 88 92 60
2.86232 -1.34867 10.852 84 92 72
-0.252965 -1.21961 11.1206 106 112 71
0.799324 -1.24136 11.4618 132 138 90
2.49418 -0.96967 10.9187 92 96 84
-0.164042 -0.869331 10.9051 84 88 58
-1.86745 -0.841644 11.6961 94 94 42
0.0113503 -0.728842 11.0474 84 88 56
-0.344632 -0.65557 10.6554 96 99 72
-0.299646 -0.607501 10.5803 57 60 28
0.575817 -0.49305 10.8981 64 64 15
2.44904 -0.566516 13.6322 64 64 29
-1.29983 -0.24448 11.0534 70 50 30
2.14418 -0.468053 13.6243 149 146 108
2.30866 -0.398555 13.8454 155 155 116
-0.397645 -0.17166 11.9792 148 150 110
-1.22076 -0.0285726 10.9514 154 142 104
-1.24407 -0.0228203 10.8982 80 56 28
-1.31229 -0.0778418 12.3783 150 126 86
-1.09888 0.247009 10.7108 144 132 92
-0.961847 0.898283 10.4971 86 45 23
3.00207 1.04404 11.1105 152 124 114
3.05534 1.07202 11.1171 78 45 18
-0.826669 1.27624 10.7494 172 130 104
3.104 1.20632 11.0017 142 114 104
2.48032 1.30482 10.0383 92 78 62
2.29451 1.37927 10.4158 70 42 23
-0.907783 1.70687 11.4183 66 42 17
1.51905 1.85532 10.3136 86 53 48
2.53194 1.99052 11.1611 56 26 22
1.51289 2.06666 10.4459 113 90 85
1.44966 2.90866 11.1562 104 64 56
1.54052 3.14557 11.0504 111 66 56
2.55213 3.79591 13.3342 87 51 43
2.33082 3.78429 12.6862 84 52 48
1.46779 3.65264 11.6634 68 23 16
1.9943 3.75116 12.0365 127 98 95
1.32695 4.27002 12.1978 81 36 21
1.76328 -5.36211 13.2109 82 90 38
-2.24081 -2.74659 9.99636 144 145 96
-2.21715 -2.73945 10.0587 85 85 49
2.58374 -0.217369 2.58482 100 102 60
2.84464 -1.31726 10.7611 72 78 58
-0.299057 -1.24304 11.2737 106 111 69
2.50109 -0.978871 10.8995 62 68 52
0.221202 -0.857505 11.4793 124 130 86
3.69037 -0.653891 12.1385 117 84 54
2.40641 -0.614041 13.5379 141 139 111
-1.41533 -0.246201 11.7721 113 94 71
3.73321 -0.314947 11.6811 116 80 54
-0.806714 -0.0339113 10.8653 158 144 98
-0.661557 0.217255 12.2849 142 141 108
-0.946434 0.230417 13.0231 142 138 105
-0.893232 0.293649 12.612 45 28 10
3.07255 0.24789 12.8843 139 116 90
3.04297 0.306817 12.9015 56 28 10
-0.905791 0.874438 11.4481 90 72 57
-0.979688 0.933997 10.5371 90 50 29
3.01695 1.01848 11.3132 74 44 27
-0.803983 1.23973 10.6138 156 120 92
-0.898784 1.54145 11.3142 128 104 77
-0.925802 1.67344 11.3993 89 68 44
-0.865327 2.41417 12.1698 60 40 26
1.02821 1.93418 7.78323 62 48 38
1.46809 2.88404 11.0444 96 53 46
1.44027 3.23276 11.3733 106 76 72
2.05403 3.39507 11.8277 114 85 84
1.43327 3.65683 11.6338 111 74 64
1.31634 4.27234 12.2265 92 45 29
-2.94285 -3.27809 9.63015 126 126 76
-2.23342 -2.74929 9.98777 144 145 96
-2.19701 -2.72943 10.0322 90 90 51
-0.472255 -1.37856 11.0983 106 109 68
-0.540417 -0.805069 10.5255 74 72 46
1.16636 -0.410693 10.505 80 80 36
3.49724 -0.591314 12.2849 66 55 22
3.53016 -0.562668 12.2248 140 136 98
3.56719 -0.494836 11.9943 158 152 114
2.44429 -0.556142 13.4927 76 64 36
-0.387747 -0.175039 11.9585 160 164 120
-1.2588 -0.0139109 10.9072 98 68 44
-1.337 -0.0935183 12.4355 120 94 56
-1.37771 -0.0533589 12.5846 158 144 98
-1.15901 0.274924 12.4139 46 24 4
-1.07149 0.311619 12.6032 129 111 94
3.18902 0.553147 11.4975 86 42 5
-0.900822 0.880871 10.2971 95 58 36
-0.803243 1.24265 10.6219 161 124 96
1.1477 1.18806 8.11783 116 123 99
-0.945797 1.56488 11.5607 76 40 15
-1.00808 1.70172 11.6656 87 61 38
1.27025 1.64475 10.0891 85 38 16
-0.932331 2.2381 12.2757 56 20 4
1.09845 1.6309 7.73514 102 110 90
1.47699 2.61486 10.8424 101 72 66
1.46392 2.8751 11.0467 94 51 44
1.75273 3.07384 11.276 108 65 59
1.67551 3.09095 11.2109 104 60 56
2.61873 3.26778 12.5169 66 27 16
2.05739 3.37115 11.7566 114 85 84
1.42312 3.66453 11.6612 114 80 72
-1.70872 2.84769 6.89657 62 55 32
1.42976 4.18996 12.1758 68 26 19
1.31263 4.26939 12.2297 88 42 26
-2.33864 -2.54228 9.82687 47 49 27
-2.26792 -2.54718 9.84286 78 80 55
3.23959 -1.65898 10.5713 66 72 47
2.85387 -1.33762 10.7903 78 84 63
2.70203 -1.17289 10.8037 59 68 49
0.0025666 -0.737898 10.9941 93 94 64
2.03762 -0.52621 11.0231 90 95 81
1.1213 -0.406539 10.6904 71 71 28
-0.994083 0.202558 12.5287 55 22 5
-0.625019 0.223342 12.1364 133 132 98
0.650408 0.275145 9.23528 64 66 44
-0.847166 0.793157 10.3132 128 92 78
-0.940478 0.992913 10.4437 162 142 118
2.92576 0.985764 11.1183 113 88 78
3.2484 1.09891 11.3075 92 58 42
-0.193023 1.51347 10.3386 84 38 16
2.32987 1.49111 10.3589 105 70 56
-0.952035 2.47173 12.4871 60 40 27
2.61768 2.87227 12.0363 98 70 70
1.67558 3.08135 11.1882 104 60 56
2.54093 3.34677 12.5329 60 29 24
1.44056 3.25675 11.3365 114 88 86
-2.59416 -3.00621 9.83194 105 104 70
-2.45049 -2.8095 9.81146 100 100 82
3.62628 -2.10813 9.68777 157 160 115
2.84125 -1.33931 10.8478 60 66 46
2.68173 -1.147 10.7275 48 56 36
0.358318 -0.773971 11.3605 162 163 122
-3.20482 -0.607431 11.8983 96 74 26
-1.31801 0.0730949 13.1045 146 134 96
3.05725 0.592376 11.9543 90 64 50
-0.88984 1.25309 10.8703 153 116 88
2.58767 1.42467 10.0337 153 133 132
-0.963394 2.36769 12.4088 136 114 89
3.59571 2.59353 9.75128 107 84 69
1.43684 3.2644 11.3341 98 70 66
1.40358 3.72937 11.7263 87 52 45
1.32104 3.81654 11.853 52 18 12
1.80067 4.2854 12.4306 90 58 50
-2.35777 -2.56223 9.80117 44 48 24
-1.55139 -2.25563 10.3695 112 113 66
2.64452 -0.174706 2.73223 144 149 110
3.6523 -0.889628 12.4661 154 158 114
3.56417 -0.793569 12.4161 50 34 8
2.51572 -0.27733 12.9367 148 160 117
-1.16925 0.310834 13.153 124 116 91
-0.802292 1.24407 10.6335 146 109 82
1.12953 1.1722 8.17482 100 109 82
1.2974 1.65 10.0289 85 38 16
2.31248 2.08126 10.9154 33 14 10
1.47256 2.35536 10.6636 76 49 42
2.12067 2.92047 11.4012 78 56 54
2.76436 3.45896 13.3746 72 40 30
0.640997 3.91257 12.0416 87 48 40
1.47698 4.16292 12.0269 74 26 19
-2.79984 -3.14771 9.73905 104 110 66
-1.24754 -0.0595299 11.1225 150 148 102
3.02668 0.587541 12.2277 66 36 20
0.726463 0.794436 8.73056 72 66 58
-0.463047 1.02308 10.7851 71 61 53
2.90354 0.916622 11.5412 54 24 14
-0.708002 1.18696 11.0234 82 50 32
0.0489551 1.60659 9.98114 143 96 72
1.17303 1.45869 8.33895 166 125 98
1.42429 3.24146 11.3023 93 56 50
1.8006 4.27264 12.3854 92 60 54
3.67061 -0.661368 12.2373 134 100 69
-1.24031 0.865568 8.41537 150 142 113
1.76 4.33915 12.5972 98 65 60
1.72106 -5.36313 13.2911 88 92 37
-0.159751 -2.80763 11.9938 108 118 70
-0.704596 0.677901 10.9788 69 64 48
3.44255 0.592946 12.0513 94 100 67
-0.542135 1.20166 10.6799 66 36 19
2.12873 2.96569 11.4316 102 77 74
1.97798 3.8441 12.1209 124 98 96
2.2094 4.04631 12.737 93 62 58
1.35605 4.14869 12.0248 69 26 14
1.81657 4.2445 12.4951 112 78 72
1.67179 4.22284 12.2387 77 38 32
-1.32265 -2.07022 10.5396 94 98 58
2.01627 -0.517375 11.0697 84 88 72
0.671159 0.280886 9.21491 91 87 60
1.50127 2.07018 10.4737 110 87 83
1.38535 3.6512 11.6123 95 43 32
1.98169 3.82776 12.1215 124 98 96
-1.7223 2.86267 6.91132 70 63 40
1.39569 4.12424 12.0384 118 79 72
-2.77179 -3.14413 9.73292 110 114 66
-2.55993 -2.76886 9.73215 53 53 28
4.99427 -2.88744 10.5475 55 60 28
-1.07376 -1.88097 10.6515 114 116 72
2.32702 1.82415 10.747 32 16 15
3.61685 1.84564 9.44213 122 121 102
2.31854 3.80761 12.7371 86 52 51
1.2806 1.64184 10.0007 74 27 8
2.10363 2.88883 11.4647 80 56 52
2.12337 2.95507 11.4961 116 97 95
1.4029 4.13852 12.0495 120 84 78
3.53965 -0.53258 12.0547 150 147 111
-1.07888 0.853499 10.4491 138 132 100
1.48223 2.35301 10.6749 89 62 56
1.48711 2.62668 10.7569 108 78 72
2.52791 3.39435 12.8947 56 24 18
2.05242 3.36132 11.7525 74 40 39
-2.59151 -2.78846 9.80864 47 49 25
4.93544 -2.90878 10.5105 50 50 20
3.51344 -0.539335 12.1046 142 141 104
-0.982793 0.990541 10.5351 162 144 120
-2.67417 -3.07214 9.51612 60 69 32
3.215 0.204011 11.5235 98 92 60
1.55489 1.52688 10.0272 159 128 124
-1.97213 -2.56647 10.1584 92 90 52
1.66848 4.22378 12.3157 66 26 20
-2.40455 -2.5712 9.9075 46 50 26
-2.38112 -2.5773 9.80179 50 54 28
-2.03017 -2.32751 9.96818 83 82 56
2.24329 2.61777 11.1078 32 14 14
-2.21795 -2.74436 10.0555 121 122 76
-2.2295 -2.7354 10.0345 106 106 68
-2.70306 -2.91348 9.64187 46 50 27
-0.0133876 -2.61868 12.0113 120 125 87
-2.42166 -2.88499 9.94336 110 112 63
-1.09028 -1.8884 10.6861 112 114 68
3.80249 -1.37488 12.3885 76 68 27
3.8069 -1.36998 12.3604 92 86 44
3.86036 -1.28939 12.3238 98 100 62
-1.9814 -2.57629 10.1469 110 108 62
-0.578232 -0.843534 10.564 105 102 76
-0.786699 1.09453 11.722 28 16 3
1.12412 1.20764 8.25623 112 117 94
2.18463 2.62397 11.171 106 77 72
1.76006 3.08454 11.2837 120 76 68
1.44708 3.2169 11.3035 122 96 95
1.38376 3.65911 11.6348 72 28 21
1.40135 4.10979 12.0215 120 84 76
1.28495 4.23412 12.1816 132 82 65
1.31584 -1.86687 10.1158 115 124 72
1.34673 4.14024 12.0397 69 24 14
1.10185 1.40247 8.08067 90 96 71
2.12264 2.93191 11.4337 84 64 62
0.697299 3.88129 11.8976 102 72 68
1.74286 4.29148 12.5757 136 102 97
-1.11269 -0.114016 11.0123 124 104 65
1.41454 1.47074 10.2483 46 14 3
1.46257 2.34668 10.663 66 38 33
1.5008 2.05766 10.4515 96 72 68
0.647543 2.8491 6.96549 123 114 98
1.34293 -1.84117 9.94479 109 117 64
-1.48872 0.0759359 13.6302 118 109 74
0.852891 -1.13144 11.3985 151 154 104
-0.989346 1.7736 11.82 136 116 90
-1.18772 2.08121 12.773 110 88 64
2.1205 2.97895 11.4833 107 86 84
2.19084 4.178 13.2641 88 60 56
0.912764 -1.09559 11.0447 154 158 106
-1.15241 -0.0151612 12.5715 58 38 12
3.2478 1.44708 11.8867 82 76 58
0.847309 -1.1695 11.4438 162 166 115
3.06872 0.446415 11.5648 40 18 5
-0.901769 1.42996 11.0732 150 122 94
-0.979053 2.38893 12.4922 130 110 84
1.28562 -1.85746 10.1485 116 124 70
-0.921137 1.54397 11.4287 88 56 30
-1.0376 1.68542 11.7394 104 82 58
2.89599 2.72426 12.9919 76 46 36
0.751413 2.757 6.5839 98 91 70
0.457975 -0.710542 10.7928 160 164 115
-0.855815 -0.0787097 11.529 106 98 68
3.03291 0.81859 11.6346 126 84 56
2.46254 1.32202 10.1392 88 72 55
-0.988287 1.68011 11.5701 127 108 84
-0.88707 2.45179 12.3129 52 26 10
1.96952 3.84693 12.132 98 69 65
-2.93038 -3.10301 10.07 50 52 30
-0.46705 0.796947 8.59116 134 133 101
3.22898 1.37767 12.0217 126 113 100
2.46212 1.3167 10.143 74 62 44
2.95691 2.54968 12.8819 84 52 39
-2.55152 -2.88202 9.30985 48 56 28
-0.94971 -3.16264 11.5412 135 136 90
0.052236 -2.02711 8.16635 80 88 39
0.925323 -1.18221 10.9465 164 169 116
-3.65992 -0.743049 12.8992 130 118 64
-1.27028 -0.0262348 11.1973 152 154 104
-0.456 0.797264 8.55182 134 133 101
-0.484482 0.911878 10.4222 30 18 6
2.92984 0.87598 11.4723 44 18 10
-0.563466 1.15597 10.559 82 54 36
2.84527 1.03331 11.0885 60 40 22
-2.42371 -2.81767 9.88438 48 52 30
-2.43994 -2.79431 9.8227 98 100 80
3.45043 -1.65892 7.05228 143 146 98
-1.79743 -2.2351 10.1431 70 72 51
-1.55844 -2.25605 10.4322 83 85 44
3.62606 -2.00929 10.5601 87 94 69
3.44693 -1.84919 10.5849 78 86 62
0.0943058 -1.93199 11.441 96 106 66
-0.400767 -1.0554 10.8199 86 88 64
2.67415 -1.15204 10.8587 86 92 76
3.57289 -0.790198 12.4521 50 35 4
1.27918 -0.364054 10.0752 98 97 64
-0.765498 -0.379925 11.9175 110 114 72
-1.27079 -0.0236958 10.9536 78 56 30
3.71405 -0.136039 11.5877 123 90 74
0.767748 0.258873 11.411 32 24 4
0.18336 0.47255 9.62335 76 80 61
-1.1012 0.71552 11.9055 112 96 84
-1.17137 0.723252 12.4873 108 104 81
1.13004 0.608338 8.84853 112 122 93
1.12174 0.872825 8.59816 100 114 86
1.05828 1.3086 10.311 30 6 0
1.08533 1.22217 8.32507 110 118 92
1.11988 1.32733 8.68512 131 97 70
0.792368 1.9111 10.2833 160 114 103
2.07096 2.2489 10.7333 116 83 77
2.61982 2.89916 12.1035 124 98 96
1.75768 3.07534 11.256 118 71 65
2.52761 3.28305 12.3103 126 97 94
3.79815 2.46645 8.94247 157 140 131
1.4633 3.26399 11.4082 63 26 22
0.616235 3.4212 11.6008 130 95 86
2.48874 3.31111 12.2135 58 27 25
2.5613 3.33739 12.341 46 16 10
0.60474 3.50849 11.7125 114 88 84
1.4184 3.34307 11.3569 54 14 6
2.54381 3.79091 13.3691 90 53 46
-1.80309 2.94405 6.9984 104 90 75
2.38929 3.7463 12.6616 126 96 94
1.43612 3.65194 11.6248 125 95 92
0.722768 3.89992 12.0041 56 16 12
1.43229 4.22939 12.1211 80 36 24
-1.00361 -3.7635 12.4208 121 126 82
4.70559 -2.83666 10.5378 94 96 51
4.49624 -2.81064 10.7761 147 150 99
4.45766 -2.76122 10.6571 114 118 66
-1.99634 -2.57614 10.1891 108 107 63
-1.73497 -2.39809 10.2241 77 80 37
-1.55754 -2.25381 10.422 86 88 44
1.29908 -1.88708 10.1914 116 120 72
2.67648 -1.16245 10.8718 70 76 59
-0.0485723 -1.04619 11.2935 92 99 46
-1.29013 -0.6715 11.7962 121 124 72
1.27895 -0.372908 10.0787 93 92 54
-1.31233 -0.0798202 12.3688 142 120 80
1.1002 0.377206 9.13125 98 108 78
1.10154 0.609748 8.90197 96 106 76
-1.16489 1.24713 7.56263 73 74 54
-0.557195 1.33779 10.6487 108 66 39
1.05841 1.30664 10.3151 28 6 0
1.1051 1.47605 8.53788 156 116 91
1.57108 1.60078 10.1594 104 69 56
1.1193 1.57558 8.18826 54 58 39
0.8034 1.90654 10.2517 148 102 90
1.50991 1.85177 10.3232 75 38 32
0.706782 2.20345 10.5126 94 48 40
2.71552 2.45644 11.9088 97 66 64
2.6122 2.8914 12.1393 110 85 84
2.64641 3.24247 12.4952 56 20 11
3.79024 2.56273 9.4879 160 144 134
3.89555 2.56618 9.45516 103 76 55
1.49778 3.25272 11.2741 63 26 22
2.49544 3.34586 12.3682 110 84 82
3.83865 2.63809 9.48449 91 62 44
2.4993 3.75525 13.1646 104 68 62
1.99563 3.75199 12.0451 118 87 86
1.38651 4.14118 12.0918 125 85 76
1.42394 4.2106 12.17 80 36 26
1.62887 4.20254 12.1877 96 56 50
1.7709 4.28934 12.4421 97 64 59
1.67653 4.32716 12.2775 133 96 88
-1.99622 -2.57511 10.1849 76 74 38
1.28366 -1.88527 10.2234 107 114 64
-0.907618 -1.49315 10.5661 80 82 59
-0.658098 -1.54166 10.9299 120 122 80
2.84829 -1.33069 10.8157 88 94 76
2.68697 -1.15388 10.8378 76 81 64
0.573782 -0.248238 9.98225 100 103 63
1.09213 0.386811 9.14322 106 117 86
0.678598 0.523089 9.10006 89 90 66
1.1144 0.920194 8.56044 94 106 78
1.11256 1.2846 10.3924 94 65 55
0.804522 1.90267 10.2542 134 88 76
1.50793 1.85481 10.3317 88 51 45
2.61522 2.89083 12.1031 102 76 76
2.50594 3.31547 12.324 110 80 78
2.43951 3.3535 12.4049 85 52 49
1.44315 3.29838 11.3668 114 92 90
0.593257 3.48791 11.7135 120 93 88
1.38889 3.34773 11.3876 54 12 6
2.37095 3.79024 12.7574 123 94 92
0.664998 3.94344 12.0733 116 87 82
2.02254 3.71959 11.9033 114 82 81
1.30805 4.16475 12.0965 83 32 18
1.15483 4.32206 12.1837 103 56 39
1.70315 4.32588 12.2639 124 88 81
4.71045 -2.8484 10.5599 80 82 38
-2.00534 -2.57953 10.206 92 92 51
3.02357 -1.5105 10.8188 76 84 62
-1.0788 0.290748 12.6366 141 121 104
1.12296 0.601545 8.85559 96 106 76
0.789836 1.9083 10.2639 148 102 90
2.22539 1.84624 10.6747 24 8 4
1.49054 2.08745 10.4957 109 84 79
2.45133 3.34951 12.4714 89 59 56
2.54658 3.34835 12.5031 42 15 10
0.641678 3.41789 11.5375 125 95 88
3.87852 2.61584 9.53057 95 60 37
2.46077 3.3846 12.2339 53 24 20
0.0689944 4.01632 12.4974 76 32 17
2.171 4.04854 12.4992 114 84 82
-2.22371 -2.74253 10.071 100 100 58
4.70237 -2.89237 10.6719 148 152 102
-1.91815 -2.45122 10.2308 50 55 24
-1.80186 -2.42819 10.3387 68 71 30
3.01495 -1.50698 10.7979 56 64 42
-1.3752 -0.0754671 12.4904 161 150 103
-1.31563 0.295909 12.7467 60 36 16
-0.965102 0.70492 11.5012 116 100 83
1.1049 0.626513 8.86108 89 98 64
1.18031 1.18903 10.267 30 13 8
-0.678722 1.63475 10.9444 102 68 48
1.10992 1.46127 8.52462 132 96 72
0.576741 2.99953 11.2047 100 71 66
3.81771 2.63702 9.48412 88 58 40
2.38621 3.7572 12.6125 114 84 83
5.02501 -3.00533 10.302 156 159 114
-1.98474 -2.52185 10.2734 105 107 67
-0.667546 -1.53399 10.9318 94 96 58
3.72552 -0.359754 11.6157 132 90 68
-1.41012 -0.0790405 12.5481 156 143 98
-0.979404 0.245087 11.9876 72 44 24
-0.886467 1.35384 10.7801 94 50 22
1.04124 1.28512 10.2356 23 10 10
1.0894 1.34875 8.76139 153 112 84
3.87158 2.58827 9.56831 86 49 24
1.97113 3.78556 12.0814 86 51 50
-2.04851 -2.25846 10.0025 50 54 26
-0.647808 -1.53076 10.8675 104 107 67
-1.46185 -0.0766812 12.6419 157 150 103
-0.558023 0.75301 9.98477 114 102 64
1.25435 1.2127 10.0562 21 10 6
2.19583 2.6742 11.5686 38 18 16
3.59324 2.78757 10.4133 118 96 82
0.645088 3.92498 12.029 80 44 36
0.613512 2.87543 7.01532 101 94 74
4.96561 -2.96007 10.5662 53 56 24
3.33576 -0.889929 12.4535 150 166 119
-1.5825 -0.466054 11.3784 144 140 85
-0.875047 0.225158 12.3966 49 22 10
-1.09712 0.839292 10.3873 100 98 58
-0.912894 1.32259 10.715 108 64 44
0.554793 2.88839 7.13017 150 140 126
-2.78964 -3.14726 9.74604 78 82 41
-0.154675 -0.851973 10.9585 80 84 55
1.34127 2.55227 10.5787 106 58 48
1.38006 4.13458 12.1017 124 85 75
-3.44526 -3.55808 9.47797 79 75 36
2.99604 -1.48599 7.30254 120 120 80
-0.0287064 -0.743847 11.111 84 87 56
0.75219 0.263831 11.4404 30 20 6
0.719994 3.89797 12.0174 72 29 20
1.36479 3.81666 11.7817 52 16 8
-2.73225 -3.08714 9.68622 43 50 22
1.28252 -0.377062 10.0922 102 102 66
1.11906 0.631635 8.82536 97 108 74
1.581 1.60167 10.164 70 32 18
2.56099 3.31336 12.3523 50 22 19
-1.775 2.91403 6.96049 94 82 65
-0.992491 0.843839 8.08579 152 144 110
1.08264 2.41003 10.655 36 6 4
2.46979 3.30745 12.1852 90 54 52
2.32783 3.77964 12.6101 76 42 37
-2.36701 -2.76473 9.96621 46 50 28
-2.21817 -2.51242 9.78334 96 94 70
-1.68633 -0.476569 11.6158 146 142 88
0.45311 -0.546636 11.2346 52 54 14
0.674289 3.91943 11.9919 83 52 46
4.70657 -2.87568 10.6164 150 154 104
-1.0577 0.844666 10.3664 115 108 75
0.54479 3.5116 11.8059 108 74 70
2.05393 3.3512 11.7177 96 62 59
1.41923 3.70136 11.6563 96 60 54
0.612775 2.89077 7.00917 108 100 82
1.41101 3.69492 11.6654 95 58 50
1.26103 3.81048 11.764 50 14 8
-2.20383 -2.71523 10.0897 148 148 102
4.45778 -2.78133 10.7293 104 106 59
-0.902598 0.726504 10.4437 128 94 74
0.0868011 -1.93088 11.4508 93 101 62
-1.0974 0.222057 10.7084 148 136 90
1.78832 -5.35502 13.1954 106 114 62
2.92848 -4.47078 12.2235 76 92 44
-1.04786 0.826898 10.4364 153 135 106
0.535794 2.53787 10.9392 32 8 2
4.47115 -2.78032 10.7135 98 102 54
-1.11103 0.217588 10.716 131 116 74
-1.13066 0.209697 10.7502 128 114 70
1.07332 2.4053 10.639 49 14 8
1.36367 3.34681 11.3596 60 15 9
1.10022 0.272818 9.42404 44 41 25
2.2753 3.92725 12.3049 94 64 60
-1.34358 0.42748 10.6615 148 139 84
-1.09438 0.82449 10.4497 126 118 88
-1.25676 0.843999 8.45216 155 143 117
1.28042 1.65959 10.1033 70 25 8
-0.905436 0.716927 10.2641 114 91 74
-3.07953 -3.01732 10.2035 46 52 30
-2.46608 -2.84163 9.94058 58 60 39
-0.934602 0.302829 10.5852 144 139 86
-0.34945 -1.0234 10.8156 87 88 62
-0.179429 0.113858 9.92436 146 134 86
1.77787 -3.15852 12.1322 118 125 78
-2.61182 -2.84023 9.59251 56 55 32
2.75135 2.13086 13.1897 92 77 68
-2.73181 -2.92218 9.65419 44 46 25
2.92692 2.60963 13.343 132 116 104
-2.71735 -3.03644 9.70557 86 86 64
-0.194247 -0.876579 10.9449 72 74 46
-0.822999 0.698628 10.5336 133 118 84
-0.879449 -1.71249 10.8438 98 104 60
1.38388 3.8142 11.728 59 19 10
2.2109 3.99464 12.7078 112 85 82
1.10851 -0.0711928 9.59026 117 122 90
0.459006 2.51679 10.9425 122 92 82
-1.21201 -4.01664 12.5324 128 131 88
-0.166885 -2.82125 12.0097 112 122 76
-1.15648 -3.92583 12.5467 146 149 104
2.21444 4.053 12.7638 67 40 36
4.44475 -2.78689 10.7244 156 158 106
0.0967284 1.4901 10.2393 152 112 79
2.20529 4.07121 12.8518 94 68 64
2.1389 4.06871 12.6849 78 47 44
3.36725 -0.887422 12.4721 146 160 116
-2.05042 0.506858 12.3237 133 126 85
0.978417 2.80108 7.25873 108 100 78
0.969413 2.82633 7.24623 118 106 86
1.48823 2.07231 10.4391 76 48 42
1.71627 -5.37055 13.3103 128 134 81
-2.73567 -3.04765 9.74179 100 101 81
5.18563 -3.06023 10.3842 83 90 62
4.68746 -2.84938 10.634 128 132 90
-0.578905 -2.51245 11.7264 117 123 78
0.190701 -1.76853 11.483 109 116 82
-0.0581549 -1.05273 11.3112 88 95 44
-2.29462 -0.778806 15.248 116 122 78
-1.26303 -0.171129 11.2466 154 140 100
-0.753693 1.49344 10.9107 160 138 110
1.46681 2.35319 10.732 118 92 88
3.75503 2.54605 9.21255 122 106 97
2.44503 3.85825 13.1218 88 61 59
5.17508 -3.05792 10.3657 67 74 44
-2.51723 -2.93424 10.0197 150 148 102
-0.329329 -0.64826 10.4698 62 62 26
-1.08006 -0.559659 11.9037 122 126 78
-0.142434 -0.480843 10.7762 96 97 62
-1.04656 -0.52902 11.9175 115 118 76
0.589513 -0.508401 10.8619 56 58 12
0.567222 -0.363363 10.2662 103 106 66
-0.700258 -0.389674 11.7015 134 136 90
-0.863096 1.27845 10.8479 160 120 89
-0.169308 1.67903 9.90582 138 120 98
0.607665 3.42737 11.6158 126 88 82
0.59883 3.50027 11.7185 114 86 80
-0.0343317 4.07498 12.7173 88 52 36
1.37677 3.77729 11.9087 109 81 79
4.72033 -2.88293 10.6405 114 116 66
-1.25113 -0.660308 11.7095 132 134 84
-1.11016 -0.574329 11.9627 135 138 88
1.11237 0.882186 8.60242 98 108 82
1.67005 3.09334 11.2453 110 63 56
2.04415 3.35334 11.8576 114 86 86
4.99653 -2.90046 10.5479 52 56 34
-0.84248 -3.31141 12.151 100 105 72
-0.897094 -1.71884 10.8764 95 100 54
-0.285449 -1.237 11.2256 110 116 71
0.327369 -0.805275 11.3766 163 162 118
0.585074 -0.511897 10.8514 54 57 11
3.68845 -0.649101 12.1707 114 81 50
3.5326 -0.561318 12.1837 76 61 28
-1.30733 -0.182917 11.3518 154 140 100
0.162258 -0.0997072 10.307 132 138 88
3.71612 -0.120606 11.4925 120 84 67
1.07095 1.40338 8.17781 105 113 90
0.492015 2.55523 11.0998 36 8 2
1.35299 3.36605 11.4908 58 14 8
0.214794 -1.76611 11.3613 102 109 75
-0.291172 -1.24095 11.2159 123 128 83
0.272841 -0.834263 11.4842 161 162 116
0.650705 0.281189 9.24236 94 98 73
0.492386 2.55672 11.0929 30 7 1
2.20532 2.67476 11.3858 33 13 12
2.60589 3.28599 12.6415 58 24 16
2.65295 -1.19021 11.0156 61 66 50
-1.19414 -0.131398 11.0933 147 136 92
-0.201803 0.157672 10.021 158 144 99
2.42701 3.39031 12.1482 56 26 22
4.71167 -2.87753 10.6447 116 118 71
1.34736 1.4704 10.3158 47 14 5
0.584911 2.55265 10.915 18 6 3
0.547204 3.44508 11.7198 94 43 31
1.75493 -3.29908 12.3648 146 154 106
1.64921 -1.9659 12.1741 136 140 102
0.599258 2.94025 11.0484 110 82 75
2.48875 3.51331 13.1604 56 24 19
0.903362 -1.1344 11.1366 160 164 116
-0.949123 1.71563 11.6706 136 111 88
1.45828 -1.42651 9.54258 154 158 114
0.002877 1.64702 10.2117 133 89 66
1.68349 -3.47296 12.8565 110 118 74
3.43435 -1.44809 6.23354 136 140 90
1.3849 0.220373 10.8392 102 105 101
2.71738 3.65205 14.3615 74 40 28
1.21514 -1.78701 10.8211 138 146 96
1.69459 -1.93314 11.8295 121 128 86
1.25318 -0.386331 10.1294 90 86 46
1.17081 -0.352763 10.1141 83 84 40
1.38364 -2.61153 13.3843 76 86 50
0.0458266 0.919453 9.20096 38 26 12
-0.340419 1.07306 10.3525 47 34 27
-2.14972 -2.57199 9.08036 62 60 38
3.76786 -1.44755 13.2317 80 74 28
1.0668 1.18808 9.29462 23 12 8
3.72227 2.4599 9.32966 160 150 140
-2.57506 -3.004 9.82845 106 104 61
-1.03855 -3.8214 12.4366 104 108 64
4.17945 -2.59597 10.6284 98 101 58
-0.542809 -2.49069 11.6411 110 114 70
0.0191673 -2.56147 11.8656 108 116 67
3.84531 -2.21445 10.5894 82 88 62
0.0918942 -1.93604 11.4529 94 107 66
2.54301 -1.16214 8.23054 96 94 88
-0.130666 -0.888158 11.053 68 74 42
0.81268 0.50385 10.6053 66 72 60
1.19846 0.828386 9.41163 68 68 55
1.11452 0.877145 8.6205 92 104 76
2.88618 1.04306 10.1828 87 75 60
3.20394 1.3189 12.7185 136 124 112
1.58533 1.60375 10.1649 64 27 10
0.491746 1.95166 10.3623 121 88 78
0.446509 1.97734 10.5301 45 11 4
0.442065 1.97821 10.4484 114 84 77
0.72709 2.20004 10.4737 114 66 60
0.166857 2.34579 10.8194 132 92 74
2.16012 2.68756 11.3713 74 48 45
0.586127 3.01468 11.3124 47 13 10
0.556291 3.07554 11.3398 116 90 88
1.49456 3.34743 11.3788 58 16 8
2.48935 3.7613 13.1868 117 84 78
2.43286 3.8563 13.1555 96 73 69
2.36756 3.75031 12.5373 60 27 27
1.40278 3.77601 11.7874 113 82 79
2.22482 4.04089 12.6152 72 44 39
1.46356 4.23116 12.1713 118 71 60
1.5634 4.33205 12.6842 88 46 40
1.41582 4.2605 12.1561 85 46 37
-2.59573 -2.78242 9.76744 52 52 30
-0.577869 -2.95648 11.8972 94 102 68
3.20812 -1.55897 10.8194 55 64 46
-0.193607 -0.879263 10.9367 68 73 44
-0.159858 -0.855829 10.9655 83 85 58
-1.57664 -0.770458 11.7292 102 101 47
-0.872659 0.344533 10.4738 116 107 56
0.817111 0.505646 10.5902 53 60 48
-1.21038 0.731996 11.4665 122 106 68
-0.866192 0.848099 10.7712 138 120 80
-0.894535 1.00669 10.7215 90 56 32
1.53993 1.27251 9.77709 26 8 2
1.59099 1.44291 10.0797 42 16 6
0.516115 2.26656 10.7059 36 8 4
0.170011 2.33741 10.8018 106 66 48
0.488617 2.49142 10.8585 118 86 76
2.20917 2.61407 11.2745 66 35 31
0.611836 3.41864 11.5956 130 87 78
0.61077 3.48654 11.6724 122 95 88
2.55574 3.75874 13.3029 106 74 66
0.694159 3.85272 11.9124 125 82 76
2.4209 3.73912 12.7199 79 48 44
