ply
format ascii 1.0
element vertex 1360
property float x
property float y
property float z
property uchar red
property uchar green
property uchar blue
end_header
-3.12554 -0.0637576 -0.394274 0 255 0
-1.34928 0.0314398 -0.575499 0 255 0
0.741892 0.252461 -0.29978 0 255 0
0.612137 0.124882 -0.669509 0 255 0
-1.17054 0.286295 0.0688598 0 255 0
-3.20605 -0.022032 -0.473634 0 255 0
-2.78827 0.0825631 -0.102625 0 255 0
0.612035 0.406166 -0.00762587 0 255 0
-2.49512 0.0387262 -0.580951 0 255 0
-2.23093 0.187539 -0.118771 0 255 0
-2.61321 0.392231 0.613386 0 255 0
-1.14012 0.481342 0.921196 0 255 0
-2.90767 0.704501 1.56244 0 255 0
-3.76728 0.573197 1.4328 0 255 0
-1.55651 0.697203 1.18457 0 255 0
-1.23243 -0.0206256 -1.55771 0 255 0
-1.1554 -0.0129582 -1.92881 0 255 0
1.20766 0.223998 -1.43686 0 255 0
-0.561257 0.0506151 -1.8267 0 255 0
-4.10197 3.39031 9.76087 70 66 58
1.41945 6.60497 10.9513 27 26 24
-3.94118 4.91283 10.062 71 49 46
-0.468232 6.42339 11.2886 32 30 30
0.991855 5.69006 10.9778 115 57 30
-3.78353 4.9461 9.81641 64 62 56
0.272135 6.46087 10.6977 18 16 17
-3.69796 3.51469 9.09717 18 20 16
0.281014 6.56098 10.4489 40 39 37
-2.28799 5.0961 9.45836 98 92 86
-0.308391 4.54068 11.4065 86 84 82
-2.17844 6.0542 9.86374 8 8 8
-3.00978 4.94681 9.27508 30 28 26
-4.25415 5.56897 9.86541 25 24 22
-3.33487 5.70822 9.06888 10 10 10
-3.88906 5.68775 9.55184 32 30 29
-0.153386 4.92035 11.033 92 86 84
-2.63456 5.91217 9.3971 4 4 4
-2.04536 6.19275 9.83151 26 26 22
1.28466 4.06016 11.3668 198 168 142
-3.09297 4.2387 9.44039 32 31 29
-0.173749 6.4724 11.1956 42 40 38
-0.677363 6.35728 11.4733 40 40 36
0.265705 6.44243 10.7595 20 20 22
-2.50324 2.53843 9.48921 144 102 103
-3.0514 5.75682 9.24314 36 32 28
1.43019 4.5221 10.9997 119 68 46
-4.15066 3.274 9.8022 166 173 150
-2.70921 5.10923 9.36125 104 94 82
-4.0421 4.90582 10.037 120 105 98
-0.010577 6.37022 12.1549 134 125 115
-3.20315 5.59877 9.48331 30 29 27
1.04183 3.99001 11.4586 139 72 34
-3.04489 5.62043 9.24603 76 69 58
0.153068 4.08906 11.5346 140 80 48
-0.0755532 6.30755 10.7294 25 23 24
-2.39394 4.25305 9.64847 42 39 36
-2.82431 5.91666 9.17962 46 45 43
-6.39383 4.05531 10.8458 172 159 143
-0.372765 6.43212 11.1984 28 26 26
-2.25824 4.7626 9.46955 96 92 84
0.439255 6.09031 11.2644 38 8 0
-2.60614 4.17663 9.41151 22 20 18
-4.36368 5.51216 9.90062 164 157 144
-3.49607 5.81363 9.03324 18 16 14
-0.112195 6.36755 10.5773 25 24 22
1.04863 5.16904 10.8977 94 46 20
0.996949 4.14929 11.1811 66 24 14
-0.243558 4.75362 11.3026 94 86 80
0.505339 5.79802 10.9009 118 62 29
0.182555 5.35267 11.0448 106 81 54
-2.89462 5.95956 9.1694 22 21 19
-3.27401 4.62555 9.10323 62 61 54
-0.16669 6.44448 10.9002 20 20 18
-3.11948 5.89208 9.06624 52 52 50
1.00627 4.65306 10.9948 88 35 7
-2.91775 4.63071 9.17351 72 70 64
-3.9417 5.7013 9.3848 28 26 22
0.988476 6.00478 11.0551 86 44 26
-3.62378 3.63393 8.99982 52 71 56
-1.9939 6.11994 9.66572 18 16 16
-0.523779 5.33217 11.4742 106 58 34
-3.25133 5.70993 9.22906 17 17 17
0.286796 5.21701 10.8108 95 54 31
0.391091 6.53134 10.4951 31 30 28
-2.32425 4.35557 9.50782 36 34 31
-3.58269 3.53153 8.88391 50 71 54
-0.588532 6.29149 11.4613 44 40 37
0.379585 6.45481 10.5431 8 4 3
-3.20009 5.871 9.39698 6 6 6
-3.03282 5.86002 9.15828 6 6 4
-2.3323 2.77859 9.27268 160 100 108
-3.00859 5.90419 9.03578 30 29 27
-2.02495 6.14059 9.58753 34 32 32
-4.01865 5.64047 10.2295 114 108 102
1.07746 6.47917 11.5596 66 30 12
-3.45241 5.67869 9.29518 18 18 18
0.29552 3.89997 12.3283 180 118 74
-0.286703 4.89292 11.1354 124 101 77
1.28667 6.61717 10.9378 43 38 36
-0.2598 6.40321 11.4367 11 11 10
-2.29556 6.07056 9.39445 30 28 26
-4.14269 5.58386 9.8374 24 24 22
0.712366 5.78273 11.2136 82 35 10
0.0389162 4.92987 11.0881 150 122 83
-2.93985 5.91589 9.17958 18 17 15
1.33642 4.76971 10.7819 115 50 16
-2.30005 2.27248 9.31829 111 104 92
0.68257 6.44566 10.4608 30 27 26
-3.00989 4.01063 9.35848 52 51 48
0.693271 5.95807 11.206 86 38 16
-3.44954 5.82213 9.10784 20 20 18
-3.47384 5.80777 8.77501 17 16 17
-0.424635 5.05092 11.4023 234 215 196
-4.33741 5.15271 9.92416 165 158 147
0.0587307 4.56664 11.3641 56 8 0
-0.237428 5.21394 11.0391 68 26 26
0.967549 6.63192 10.7244 46 44 44
-0.418852 5.01631 11.4992 231 218 201
-3.45777 2.62166 9.28849 70 68 58
-0.890576 5.18498 11.2319 159 74 8
-4.11637 3.42205 9.44956 118 116 105
0.511634 3.79923 11.2605 142 82 45
-3.57282 3.36484 8.88779 40 101 66
-0.191176 4.61581 11.2167 10 3 2
1.61992 4.19014 10.7095 148 110 84
0.256645 3.87788 12.3632 171 130 105
-3.21171 5.64418 9.45734 8 4 2
-1.40294 4.15804 10.8236 146 132 116
4.64445 6.64304 16.2853 166 152 134
-3.1562 2.61011 9.09841 42 40 36
-2.41671 2.54841 9.35214 145 92 97
0.187862 4.94581 10.7472 181 154 115
-0.0902381 6.351 10.8454 58 56 56
-3.58236 5.77912 9.01129 16 16 16
-1.10205 4.06921 10.985 186 134 74
1.12972 6.54265 10.8298 56 52 48
-2.89947 5.30701 9.43976 44 44 39
-0.414091 5.08639 11.436 226 212 192
1.102 4.83215 11.1514 143 96 63
0.13318 4.46799 11.4477 98 50 23
0.00181077 4.68547 11.2214 92 41 16
-2.62237 4.77759 9.18637 154 137 121
-1.79168 4.90415 10.6616 160 151 139
0.50632 3.77361 11.8625 194 180 162
0.74729 5.13366 10.7379 120 56 22
0.833465 6.0611 11.1851 74 34 14
-6.4095 1.87925 11.5592 188 171 154
0.35313 6.37908 10.7644 24 20 20
-0.0798003 5.26048 11.141 84 63 50
-0.484115 6.32727 11.4004 24 22 22
-4.08637 5.64471 9.97775 35 34 32
-3.82043 5.69155 9.32073 30 28 26
-3.54219 5.64466 9.95566 20 18 16
0.0576664 6.39942 10.9332 14 12 11
1.69471 6.60319 11.0468 52 48 46
1.74488 6.69384 11.4333 36 32 29
-2.9622 4.25473 9.2405 10 8 6
-2.89837 4.1139 9.19289 28 28 26
-3.62564 5.81539 9.35318 16 14 14
-2.5134 3.85917 9.34637 31 28 24
-3.10527 3.76185 9.01628 58 58 53
-2.78657 5.89633 9.32275 8 8 7
0.841019 5.96754 11.2448 75 32 12
-3.424 2.89428 9.10837 18 17 12
-3.40435 2.80724 9.10746 10 10 7
-3.97766 3.70087 9.25384 158 148 132
-2.8694 4.98702 9.09167 84 78 72
1.05177 6.64053 10.7239 27 26 25
-3.15386 2.65542 9.11845 28 25 21
-0.23779 4.27897 11.4939 118 56 21
-2.94512 5.36056 9.27245 44 44 39
-2.88477 3.57082 8.9021 69 66 59
1.25316 4.27938 11.0885 66 18 1
-2.3253 2.69167 9.2373 158 100 106
-3.56746 3.02067 9.3305 34 28 16
-2.36777 4.39025 9.69131 28 25 22
-3.9652 5.71771 9.55496 18 17 14
-3.3131 5.89065 8.87431 20 20 20
-3.4542 3.4572 8.953 116 118 66
-3.07211 3.33838 9.17392 43 40 35
-0.249232 4.45167 11.479 143 96 66
-0.0144421 5.05142 10.9513 118 98 70
-1.79139 4.89498 10.6812 129 120 108
-2.89433 4.08851 9.25441 27 26 24
0.486573 4.56872 10.8581 90 36 8
0.0509508 5.16037 10.9976 134 110 80
-0.183519 4.73346 11.2281 18 10 10
-3.63913 5.67099 9.10069 14 14 14
-0.188732 6.4238 12.0526 40 36 30
1.02489 4.75417 10.6942 148 81 40
1.51029 5.38026 11.1886 100 68 46
0.0398356 6.14616 11.8211 105 77 64
1.42341 5.45565 11.2981 104 60 40
-2.44286 5.37519 9.69188 83 72 64
-3.27154 2.26866 10.2271 89 70 65
-3.68098 5.1604 9.75396 122 119 114
-3.52383 5.23427 9.6094 56 52 48
-2.96623 2.29068 10.0608 51 50 43
2.13078 6.89675 11.2087 120 112 100
-3.24531 2.12027 9.93304 98 95 86
-3.36413 2.41279 10.0932 88 68 62
-4.04724 5.62515 9.74495 36 36 34
-3.43378 2.48509 10.817 194 163 155
-1.96644 2.86849 9.92081 98 68 66
0.646906 4.72817 10.7101 122 61 28
-2.70655 5.99037 9.33321 16 16 15
-3.94137 5.01874 9.99696 204 196 187
-2.42859 5.75996 9.88172 32 29 24
-2.21374 6.1316 10.2457 13 9 6
-3.53707 5.39777 9.76241 56 50 42
1.23959 6.14682 11.0461 144 121 106
-3.70634 5.07652 9.88947 92 88 82
-0.365296 6.3164 11.4243 10 10 8
-0.029718 6.50113 11.718 37 30 27
-3.80147 5.06034 9.81421 92 88 79
-3.8294 5.71558 9.48419 48 47 46
-1.89527 2.86224 9.81406 50 48 42
1.69876 6.74717 11.0833 52 50 44
-3.76497 4.46065 9.93825 57 55 50
-3.72037 5.82309 9.98857 19 18 18
1.41118 6.07899 11.3922 104 80 64
-4.01548 3.28461 9.49788 86 99 82
1.21754 6.31182 11.2937 65 30 14
-2.05042 2.37104 9.08933 138 122 108
0.0504382 6.55097 11.0065 32 31 29
-3.11747 5.41192 9.57743 44 42 38
-3.57807 4.63945 10.0525 86 84 76
-4.10716 3.34132 9.48166 50 52 47
1.36802 6.70568 10.8695 24 24 20
-0.567853 4.94043 11.4187 205 176 148
0.96327 6.06113 10.9963 52 13 1
-3.62976 3.43159 9.42127 74 96 60
-2.11705 3.48111 8.24113 52 48 44
1.135 6.09979 11.111 80 32 15
-1.83523 6.14176 9.92326 110 102 94
-1.69347 6.22882 9.81846 134 126 116
-4.07021 3.39843 9.58218 100 100 88
-3.08528 2.10482 9.56421 78 75 64
-1.81222 4.37612 10.1571 173 166 152
-3.27378 2.43282 10.1217 90 86 78
0.561802 4.77557 11.0749 92 42 15
-4.13555 3.55474 9.72489 93 88 78
-0.0485583 4.49063 11.2985 64 16 1
-4.14548 4.7234 10.2619 165 158 150
0.106072 3.54703 10.7975 139 87 56
-3.77127 4.55506 9.86514 52 49 43
-2.16569 3.67012 8.33217 57 54 48
-2.97614 2.0889 9.69034 149 140 128
0.512604 6.49101 10.4708 26 24 21
-3.85338 2.57911 10.3792 160 150 136
-3.29526 5.03397 9.09737 62 60 56
-3.70081 5.66768 9.2104 21 20 20
-3.6208 3.34864 8.97131 0 18 4
-3.31031 5.19064 9.13611 56 56 53
-1.83395 6.25593 9.8495 18 17 15
-2.93676 4.95829 9.16763 62 58 49
-1.86514 3.22156 9.94889 36 33 29
-3.24905 4.20665 9.09185 46 44 40
-4.09861 2.6443 10.1943 166 154 139
-3.93941 3.94336 9.17345 174 162 148
-3.69364 5.7464 10.1475 16 14 12
-2.04406 6.09342 9.84097 35 33 30
-2.02476 2.62473 9.4079 132 98 93
-3.56292 2.62689 9.26991 50 48 44
-3.40299 2.60464 8.81879 12 10 8
-3.9037 4.25841 9.78348 188 176 159
-3.44183 4.59247 9.31978 76 74 68
-2.79152 4.7828 9.05061 198 183 161
-2.15278 5.39647 9.82235 112 101 92
-3.46875 4.98488 9.32647 92 88 82
0.473667 3.78067 11.306 163 100 62
1.00095 5.0206 11.053 71 26 5
1.88536 6.70385 11.4805 90 82 72
-2.23255 4.41585 9.50268 54 50 46
-3.02661 5.41077 9.38677 49 48 44
-2.2918 4.82454 9.27703 138 126 115
-3.61936 5.75555 9.41752 19 19 19
-3.63233 5.18754 10.3795 90 86 80
-2.18924 6.08275 10.4637 90 82 76
-3.68852 5.60405 10.3605 116 109 98
-3.19623 5.38632 9.50501 34 34 32
-3.60054 3.29081 9.17058 40 36 10
-3.85299 3.83694 9.10317 164 146 126
-0.333055 5.10107 10.9819 151 122 111
-2.16472 3.87017 8.79184 60 57 51
-3.92849 5.66992 9.72223 15 14 12
-3.76029 3.65992 9.19269 93 90 76
-3.78814 5.70186 9.65158 9 8 6
-3.62523 3.49233 9.00927 42 45 40
1.04348 4.57599 10.7908 110 52 20
-2.43733 5.45058 9.53274 70 58 54
-3.94093 5.66319 9.85693 17 17 16
-0.299051 5.40423 11.6413 74 28 26
-3.65349 5.80209 9.57786 15 15 15
2.36182 5.27559 12.1985 174 144 126
1.50935 6.57661 11.6469 46 35 26
-3.40813 4.13083 9.2205 68 66 60
-3.61728 2.57125 7.45006 48 46 38
-2.784 2.21615 10.0029 122 109 96
-2.11462 4.72774 9.67615 145 137 126
2.18302 5.38559 11.8742 62 38 24
-3.98534 5.66899 9.68197 18 18 16
-2.52424 4.01485 9.49126 50 48 42
-1.81531 3.67876 9.70458 54 46 36
-4.04348 3.92101 9.54868 34 34 32
-0.39725 6.29963 11.1483 16 15 12
1.03017 4.10218 10.9151 73 23 4
1.03191 4.56553 10.0519 141 77 41
-3.50189 5.83913 8.90562 12 12 12
-3.68204 3.31057 9.19682 38 39 29
-3.03646 5.93975 8.99328 8 8 8
1.46022 5.70327 11.4021 167 130 96
-3.45871 5.69339 9.05501 14 12 13
-2.09941 4.49549 9.66663 53 49 44
-0.661339 4.77042 11.3082 182 144 109
-2.04521 2.80374 9.36308 83 60 60
-3.45751 2.42063 9.95036 122 109 96
1.09476 4.7243 10.8801 210 172 144
-3.1491 4.14923 9.49454 56 54 50
-2.47974 6.06226 9.37359 14 12 12
0.346397 5.43228 11.2228 92 65 36
0.514532 6.6588 10.5362 18 16 14
-4.12872 3.45042 10.3854 114 126 94
-0.384761 6.35127 11.3179 30 30 28
-0.951085 3.90835 11.0545 242 170 84
-1.99746 6.11437 10.1205 80 72 66
-1.04421 3.89009 11.0587 212 134 52
-3.121 3.35366 8.97074 52 50 46
-2.25671 3.62292 9.43493 51 47 42
-3.70999 5.56645 10.1533 41 36 33
1.1299 5.56824 10.9356 170 99 60
-3.19475 3.36197 9.06133 35 34 30
-3.88634 2.63584 9.90779 44 41 32
-0.0689419 4.64267 11.3205 72 32 12
-2.4269 3.14846 9.39266 128 74 80
-3.38252 2.48977 7.04282 188 164 84
0.809302 6.0251 11.716 118 60 30
-0.37399 4.75605 11.4463 202 198 187
-1.90078 3.11079 8.94614 126 116 110
-3.32616 3.01006 8.97103 63 56 31
-2.24328 4.70315 9.51658 49 46 42
-3.68291 5.19512 10.3658 87 83 76
-3.97146 6.96988 11.304 20 18 16
-3.73571 5.76749 9.27011 30 29 28
-2.06008 2.74726 9.30986 57 36 33
-1.84415 6.31419 10.2935 110 104 95
1.27199 6.66429 10.8865 38 36 36
-1.96577 3.49355 10.3805 76 52 52
-3.03014 5.27527 9.34224 52 50 46
-3.17952 4.28777 8.05788 51 50 46
-3.33539 2.3819 9.3546 96 93 84
-4.0654 5.78035 9.897 46 45 44
-0.245212 4.06399 12.4124 204 178 151
-0.332609 4.95286 11.1322 132 110 84
-0.0473357 6.43089 11.1568 23 22 22
-1.73322 3.7755 10.3473 94 88 75
-2.42468 5.96935 9.41675 12 10 12
-1.97278 4.05188 9.36143 57 52 44
-3.493 2.91528 9.12246 12 12 10
-4.08071 4.91328 10.0447 36 34 28
-0.319386 4.49248 12.2463 172 146 126
1.24858 5.45 11.009 87 44 25
-3.07815 4.90533 9.31277 46 44 40
-0.0427629 6.65085 13.2901 200 190 174
-1.83476 5.02322 10.7136 154 145 131
-0.460372 4.35096 11.6699 183 152 132
-2.54686 3.9975 9.29004 42 40 36
-1.868 3.60593 9.72017 62 58 52
-3.74071 3.49926 9.51426 98 102 88
-4.16793 3.31332 9.60967 141 136 120
-3.96001 5.58985 10.0483 24 22 17
-1.50085 4.02052 10.7145 140 124 108
-3.41131 5.74266 9.27705 6 6 6
-3.15293 3.34922 8.1009 38 38 33
-2.18814 6.53554 11.3601 80 71 64
1.16079 6.10257 11.2681 77 40 23
-3.7249 5.86906 12.2096 90 86 79
1.03413 4.47969 10.9984 86 36 12
-3.19846 5.35734 9.69442 50 48 44
-3.9445 2.74362 9.87175 39 36 31
0.935328 2.2142 12.3293 186 172 152
-0.100071 3.4752 7.95505 76 25 1
0.214173 3.86833 12.4278 211 190 169
-4.20443 6.98567 14.9381 38 38 33
-2.61568 6.01358 9.38181 14 14 13
-3.51038 5.02069 8.56512 10 8 8
-0.253127 4.67134 12.4055 182 156 134
-2.93548 3.69528 7.57774 28 28 26
-3.27944 4.80004 9.10509 60 60 54
-3.58981 3.08902 9.23172 58 51 24
-3.40313 3.7843 7.88868 79 76 68
-0.47027 4.99285 10.9787 222 210 191
-0.063691 3.61496 12.0215 197 182 162
0.157357 3.95966 12.6943 216 181 152
-2.80165 5.94386 9.10014 22 21 20
1.37906 3.86447 10.6922 197 167 140
-3.17863 1.87766 9.82369 185 170 151
-3.04147 2.98261 6.01303 14 13 12
1.27882 4.40479 11.2594 64 18 2
-3.93813 2.51079 8.24969 198 175 139
-3.44564 2.42548 11.2014 156 138 130
-0.297612 4.43274 11.6965 124 60 21
-3.21978 3.71079 9.10008 18 17 15
-0.076833 6.02277 11.3819 55 32 20
0.117597 5.4441 11.4185 92 64 40
-3.40698 5.44794 7.90283 145 138 126
-0.406691 4.95518 11.4872 231 216 194
-2.20495 2.5782 9.32238 148 90 96
-2.51546 2.39968 9.96714 165 157 146
4.77627 4.96635 23.2154 186 172 152
-3.2219 5.89422 9.02819 26 26 25
0.222993 4.84503 10.7454 17 2 0
-4.48546 5.23504 10.7981 98 96 85
-0.175894 4.50798 10.1706 161 136 108
-2.18605 6.04984 10.3313 76 69 64
-1.91552 4.42828 10.2713 48 46 40
-4.00603 5.61879 10.2646 92 86 78
-3.76632 5.71736 9.50081 14 14 12
-0.365173 4.18592 12.2776 210 183 162
0.0101572 4.62398 10.9155 87 47 24
-2.89866 4.99394 9.15344 80 72 62
-3.70356 3.35897 9.18058 76 92 72
0.693227 6.61269 10.5758 34 32 32
-4.85151 4.44254 11.9437 196 184 166
0.0955311 4.91493 10.9554 171 154 126
-3.10276 4.93427 9.40267 46 45 41
0.883005 6.43092 11.3529 66 29 10
-0.152943 3.89786 12.2988 217 185 160
-3.31267 2.89315 9.07659 34 31 27
-2.41381 2.75805 9.18825 153 98 103
-3.76129 4.8659 10.9192 85 82 75
-3.93225 4.7364 10.7263 66 62 54
2.59046 6.94814 12.8609 203 194 178
-2.65499 2.98232 9.79 43 38 34
1.30543 3.88026 10.4065 182 118 70
-3.70015 3.38203 9.09216 50 52 39
-2.02592 6.08363 10.1427 72 62 58
1.28639 4.76132 10.8833 102 41 14
-1.87081 3.42644 10.0342 40 38 32
-3.88809 2.72346 10.5541 110 106 94
-4.66074 0.364679 19.0961 172 156 140
-2.53505 5.55794 8.84779 6 6 4
-0.347488 6.33203 11.8324 46 42 38
-5.77912 0.120084 18.7629 176 160 145
-5.03458 1.54402 18.6707 190 174 158
-0.275169 4.53345 11.6033 140 97 76
-3.80353 2.58704 9.71047 86 84 73
-2.47312 4.62448 8.6603 180 165 146
0.253868 3.76611 11.7619 148 79 42
-5.77171 3.07613 19.2055 180 164 148
-5.32474 1.49554 18.384 188 172 156
-3.19216 2.33365 9.96058 69 66 58
-3.72375 2.52152 10.4724 171 160 144
0.324642 5.13659 10.8249 96 56 26
-3.55454 5.86713 10.0844 11 10 9
-0.330719 5.47122 11.5061 62 14 16
-3.56817 5.76378 9.28167 18 18 17
-2.71717 5.706 8.96412 5 4 4
1.3405 3.96101 11.0867 184 155 133
-0.382738 6.27373 10.8247 18 17 16
1.1708 3.78199 10.4416 204 176 152
1.10283 4.41339 10.8612 62 17 3
0.182572 6.4712 11.3024 17 14 14
-3.00501 3.53958 8.76198 51 50 45
-3.01043 5.85496 9.05165 37 36 35
-2.42791 4.58138 9.3327 54 50 46
0.0112493 6.34969 10.5785 22 22 20
1.40038 5.08799 10.9115 120 68 42
-2.01627 1.5587 1.41477 44 42 38
-2.93755 2.51729 9.46423 79 78 68
-0.227387 5.19469 10.975 60 26 16
-3.16067 4.4303 9.89844 44 43 39
-2.83167 3.86144 9.07562 32 32 26
-0.852002 5.05977 11.0646 165 78 15
1.35681 4.97107 10.9833 150 84 44
-3.68796 5.50409 9.98875 28 24 18
-3.33387 5.72855 8.67971 14 14 14
-1.57087 6.35099 11.7268 205 196 180
1.1275 6.02603 11.002 127 65 34
1.89687 6.643 11.0299 46 42 38
1.26286 6.03398 11.0039 190 167 145
-0.40085 4.64476 11.4471 188 180 164
-0.215041 4.00908 11.8005 69 14 0
0.518116 6.53314 11.1526 19 12 10
1.63681 6.83844 11.1437 30 27 24
-1.84684 6.00638 9.63641 103 96 87
1.39942 5.72946 11.3039 86 51 31
0.15109 6.45669 10.889 24 24 24
0.987237 4.12322 10.4978 60 16 0
0.862868 4.64111 11.2082 126 62 26
0.477443 5.85312 11.6489 84 51 25
0.767525 5.43918 11.4622 52 7 0
-2.13831 6.14331 10.1548 10 7 4
-2.63024 3.89749 9.10871 52 50 46
-3.52422 3.61113 8.89883 46 61 34
-3.93894 5.41288 9.53189 20 20 20
-2.05521 6.19208 10.4191 114 104 98
-0.361336 5.17973 11.4064 234 218 196
-2.78109 5.33125 9.24929 44 43 38
-2.8571 5.73247 8.9077 26 26 22
-2.346 4.11673 9.58325 56 54 48
0.363988 3.64524 11.978 196 185 166
-2.9939 3.69022 9.2338 57 56 52
-2.62543 4.56295 9.26722 50 48 44
-1.10882 0.304027 3.15806 181 168 150
-2.89018 5.82852 9.19958 8 8 8
1.69209 5.74191 11.9599 110 60 35
0.450924 5.22401 10.9408 94 44 18
-0.443467 5.39885 11.5422 94 67 46
-3.02065 5.07503 9.2377 41 40 38
-2.80921 2.34468 9.9137 44 43 37
0.0141776 6.43092 10.8024 18 16 14
-1.17677 6.38397 11.5572 173 161 147
-3.03513 2.44014 9.6318 42 38 30
1.7885 6.67777 11.706 99 90 80
-2.90327 5.97539 9.16993 28 26 24
-3.44064 5.7085 8.70715 18 16 14
0.253809 6.40285 10.3454 13 10 10
2.38146 5.72734 12.5422 91 72 57
-0.363635 4.79855 11.5111 159 154 146
1.98737 5.99452 12.3225 156 138 128
-0.417133 4.98312 11.4847 231 216 199
-1.97831 3.93773 9.63888 48 45 41
-2.71842 5.90881 9.25723 5 5 5
-3.38258 5.7994 9.04016 32 32 30
-0.329603 5.50568 11.5615 62 16 17
-2.6219 5.9994 9.32091 20 18 18
-3.13378 2.21869 10.9597 190 178 161
0.191229 3.76031 12.072 196 158 129
-1.92651 6.15179 9.75099 11 9 10
0.209735 5.15314 10.8051 137 112 82
-1.80041 3.96207 10.0264 140 132 120
1.25654 4.70366 11.2301 81 35 12
-3.19925 2.61821 12.3125 152 142 130
1.52528 4.1075 10.9401 180 114 74
-2.44959 5.49686 9.91906 74 70 64
1.25187 6.0466 11.0643 139 104 83
1.62266 5.46499 11.4992 150 110 88
-1.77141 3.70111 10.1151 96 86 78
0.480953 3.94375 11.929 162 116 80
1.12843 6.11772 11.0096 104 48 22
-3.93257 4.00531 9.21383 192 180 164
-3.83908 3.79152 8.97744 159 144 122
-1.85917 4.46142 10.3698 73 68 58
-4.03882 3.21053 9.65131 138 138 122
-4.05137 3.39448 9.61359 101 99 86
-2.92431 2.12801 9.95616 82 78 68
-2.13503 5.05198 10.4997 34 26 22
-2.36395 6.00824 10.3937 38 34 31
-2.94669 2.29459 9.99865 62 60 54
-3.46371 2.69698 9.22017 31 27 24
-3.29572 2.48988 9.95042 88 86 74
1.25572 6.17282 11.1285 116 95 78
-0.50764 6.28959 11.5431 46 40 40
-3.96927 3.23726 9.37004 78 91 73
1.41097 6.77242 11.015 18 16 14
-2.13518 5.01123 10.1702 125 120 111
1.7586 4.283 11.2722 104 72 46
-3.16334 4.20535 9.60818 44 43 40
-2.19125 6.05404 10.1618 31 30 27
-2.15087 5.38962 9.79659 84 76 68
-3.08773 2.12463 9.70689 68 64 54
-3.56981 2.71614 9.16145 41 37 31
-3.54647 2.5825 9.12314 75 72 62
-0.583076 4.89259 11.3176 190 148 102
-3.2926 5.00635 9.04433 66 63 58
0.0593507 4.85879 11.04 72 56 40
-0.070084 4.62998 11.3063 56 22 6
-1.71041 6.27089 9.64612 183 176 162
-3.65456 2.55544 9.865 61 58 50
-2.24439 4.40994 9.48104 54 50 46
0.59491 6.67839 10.7822 38 35 34
-0.282553 6.49298 11.1165 14 14 10
-2.02796 2.46958 9.5121 144 124 116
-3.19869 2.55044 9.84017 82 80 72
-0.0384167 5.22371 10.9834 152 121 98
-2.76661 2.17656 9.89749 94 87 76
-0.0684148 4.45791 11.2274 77 30 5
-2.49385 2.35741 9.88677 142 134 122
-3.16482 3.35294 8.99357 38 38 34
-3.27339 2.36894 9.94966 112 104 97
-2.81271 4.84782 9.19662 206 192 167
-3.57688 3.44029 8.83269 44 51 39
-2.49226 5.795 9.91297 39 36 32
-2.49688 5.34227 9.29373 74 68 63
-2.01601 6.11973 10.1252 61 54 47
-2.27568 4.43352 9.06893 48 46 42
-0.874585 3.7879 10.7605 250 199 82
-2.47989 6.0221 9.31178 12 11 10
-2.21561 5.99351 9.91095 26 26 24
-3.05741 3.1475 8.89761 42 40 36
0.194026 5.21572 11.6497 151 134 108
-2.01733 6.04938 9.85091 34 30 27
-2.80112 3.1173 10.1305 44 40 36
-3.36825 3.07508 9.21665 66 55 28
-2.72314 5.91982 9.22289 12 10 10
1.43863 4.02332 11.1263 196 166 146
-3.44509 5.69171 9.09848 28 28 26
-3.31417 2.60179 9.27239 42 42 34
1.77477 4.94918 11.1882 184 160 139
2.39436 5.75014 12.5581 74 52 36
-3.60158 3.3271 9.12976 78 94 53
-1.83957 4.8577 10.2574 150 144 132
-3.69401 3.38774 9.09947 88 86 73
1.10833 4.6693 11.1251 107 54 22
1.36424 4.88459 11.1683 109 48 16
-0.4204 6.32164 11.6485 6 4 6
-2.58453 4.1329 9.47125 24 23 22
1.47807 3.99509 11.031 186 154 130
-3.14993 4.73843 9.35132 38 37 33
-3.76495 3.42247 9.33914 108 107 94
-1.90407 5.09581 10.664 183 174 161
-0.203739 3.97942 12.3995 194 158 133
-0.166126 5.16066 10.9333 50 18 10
-3.02278 5.34842 9.23056 44 43 38
-2.08093 5.00763 11.0319 80 74 62
-4.10507 5.34354 11.5881 77 74 67
0.538378 5.60919 10.9493 112 57 25
-0.0292246 6.58117 10.0406 194 184 168
-2.3744 4.72318 8.40301 80 74 66
-4.72693 0.0878083 14.4516 177 161 146
-3.1232 5.82799 9.13446 10 10 10
-4.20961 0.147521 14.3504 174 159 143
-0.400139 4.66111 11.4578 174 165 152
-3.21648 0.457492 15.4027 182 167 150
-1.22663 -2.8772 16.0791 180 166 150
-4.99193 0.13775 14.5245 172 156 140
-4.29079 3.8129 9.70829 192 180 168
-4.23577 0.256805 14.5693 173 158 142
-3.90592 0.194062 14.9199 175 160 144
-1.51421 4.06375 10.7403 102 92 82
-6.24332 -0.385139 13.8258 181 165 150
-3.0703 4.71071 9.31343 33 32 30
-3.44466 0.27051 15.044 178 163 147
-2.45059 5.97 9.64717 4 4 4
-0.206328 5.04512 10.9532 35 34 32
1.29217 4.22107 11.0706 70 20 3
-6.30375 -0.372227 13.8183 178 162 147
0.39339 3.7329 11.9175 193 180 162
0.318048 3.89496 12.2315 154 105 72
0.227018 6.27584 10.9389 14 10 8
-3.25603 4.22933 9.13565 48 46 42
-3.96667 3.70939 9.26005 158 148 130
-0.395284 6.30821 11.2061 32 30 27
-3.20813 -0.199738 14.5871 190 175 159
-2.84744 3.91925 9.14493 36 35 30
-3.55332 5.78764 9.96014 12 11 10
-1.80188 -0.0136935 15.4167 184 168 153
-3.81591 5.77868 9.25012 34 30 26
-0.853058 3.97185 11.1706 246 214 138
0.592863 5.44097 11.109 67 38 23
-2.35442 -2.45723 15.3891 180 166 150
-2.99119 -3.11853 15.0651 178 164 148
-3.94224 3.96362 9.21949 170 158 141
-3.13101 3.36975 9.00343 52 51 44
-2.96607 2.7623 9.07005 40 37 33
-5.29453 -2.69811 14.255 182 168 152
1.26539 4.42704 11.2614 62 18 3
-3.95935 3.08773 9.09072 56 97 66
0.838198 5.6435 11.1095 50 10 0
-1.83271 2.8909 10.0402 76 71 66
-3.52357 2.90577 9.21657 28 26 20
0.0730315 6.32879 10.3475 33 32 31
-2.53659 5.97833 9.36719 39 38 37
-1.51453 3.66312 10.7237 196 184 164
-2.65716 5.19247 8.99332 39 38 35
1.76179 5.50019 11.6377 150 128 113
-3.67361 5.01713 9.71601 82 78 70
-3.77393 4.63389 9.81101 58 54 50
-3.18881 5.34486 9.44336 24 24 21
1.45165 5.83538 11.4482 166 134 114
1.0859 6.66976 10.7808 24 21 20
-3.40531 2.14782 10.5568 170 157 140
-2.28355 6.01364 10.2096 18 16 14
-3.75095 4.51538 9.78286 70 66 60
-1.76902 3.8573 10.151 62 58 48
-3.89666 5.53873 9.66746 30 30 28
7.39963 -3.68204 17.4986 188 173 156
1.4536 4.68376 10.6149 104 44 14
1.18825 4.20421 15.7493 182 169 150
-0.319916 5.09181 10.887 72 28 25
-3.3937 4.05829 9.05211 85 82 74
-3.4146 2.28962 10.6026 151 140 126
-3.1699 2.85216 9.11828 6 4 4
-2.42299 5.92564 9.36304 8 8 8
1.30739 5.6862 11.2336 92 48 24
-2.46587 6.04607 9.6312 10 9 6
-3.66938 3.58368 8.99698 52 53 44
-3.06617 4.95235 9.22456 48 47 42
0.98461 6.43129 11.3939 68 32 12
-3.70928 3.27679 9.02312 76 74 62
-2.75757 2.7128 8.94061 45 42 38
-2.95071 3.73277 9.04864 50 49 44
-3.17108 4.68266 9.12044 46 45 40
-2.39113 5.86091 10.0278 13 10 7
-3.4686 4.98296 9.3185 95 92 82
-3.7594 5.5978 9.49132 10 10 9
-0.0488571 6.4487 11.5727 31 27 24
-1.95791 2.83554 9.86194 67 62 56
0.761635 4.8844 11.1557 121 60 25
-3.26186 2.21926 10.4159 86 82 70
-3.95864 4.62972 10.2255 106 102 92
0.276572 3.80193 11.5198 160 86 42
-2.67752 5.01123 10.3511 48 44 40
-3.05545 2.99157 9.48041 43 40 36
1.09863 5.09083 11.2675 14 2 0
-4.24162 5.02003 9.86121 39 36 32
-0.933666 6.34044 11.6594 150 146 140
-3.29293 2.44308 9.18555 56 52 48
-2.30273 4.2666 9.91481 56 54 48
-3.31482 3.11252 8.97371 87 77 46
-2.98806 3.68753 8.99176 51 50 46
-2.31401 4.79437 9.28469 192 176 154
-2.39727 6.09328 9.37758 24 24 22
-3.43129 3.20982 8.93528 177 157 86
-3.52906 3.62211 8.93489 38 60 43
1.25275 4.14207 11.7137 132 88 64
1.5527 5.84305 11.5076 164 144 126
-3.81964 4.91264 9.96778 54 52 46
-2.09569 4.43229 10.1312 76 73 67
1.33996 5.92775 11.1039 110 84 64
-2.56237 4.03335 9.36416 31 30 28
-3.63847 5.78951 9.71926 20 18 18
-2.43299 5.91293 10.3349 26 26 24
-2.61416 4.15938 9.78238 34 33 28
-2.12236 5.14483 9.60145 90 82 72
0.117766 5.26759 11.3049 138 116 82
1.76216 5.65717 12.7087 150 85 46
-2.51233 5.19444 9.36221 132 126 112
-2.03811 4.88252 10.4394 66 61 55
-2.07934 4.55631 9.63129 58 56 50
-2.66626 5.73735 8.95114 14 14 14
-4.05093 5.82313 10.4239 22 20 18
-1.39013 3.50667 10.1931 202 192 171
-2.26774 4.77083 9.62803 44 43 38
-3.98382 5.69434 9.62149 30 28 28
-3.26087 0.0901758 13.4005 185 172 156
-0.123999 4.98349 11.0228 14 13 11
-2.73163 5.22191 9.42435 78 70 64
-4.31507 4.75677 9.68147 97 94 84
-2.73465 2.43852 9.72907 67 66 56
0.495277 5.66879 11.1398 81 34 12
-0.422714 0.791276 5.81774 178 165 148
-0.436162 6.34694 11.2953 32 31 29
1.55377 5.18659 11.1877 124 74 50
-3.67549 5.64806 9.17475 36 34 34
1.63686 5.11117 11.1306 172 147 126
-3.5126 5.53645 8.88009 14 14 14
-3.69547 5.59868 9.29331 22 20 18
-3.74065 5.51824 9.02328 36 34 32
0.0932044 3.44634 10.3269 118 60 26
1.48451 5.55671 11.5313 79 36 14
-3.52533 5.48639 8.59527 3 2 2
1.48998 5.51696 11.2094 116 58 21
-2.95386 5.59601 8.46787 12 12 12
1.15495 4.90299 11.2033 164 108 68
0.360259 5.10517 11.5638 19 16 14
0.0326266 4.56784 11.1746 96 45 11
-0.531152 3.69724 10.2482 180 157 136
-3.64838 5.6745 9.9659 26 24 21
-2.9116 4.99858 9.14779 68 64 56
-0.0185702 5.4765 11.8781 20 18 16
1.50544 4.92982 11.0212 123 66 34
-0.0256329 5.15446 11.041 96 78 53
0.135569 5.54176 11.5379 90 62 40
-3.37307 5.11548 9.1245 80 76 68
-3.45097 4.70195 9.26395 94 92 87
-2.53639 5.9309 10.558 42 40 36
-3.67846 4.1388 9.39553 101 98 92
-3.73894 4.33324 9.61346 59 57 52
-3.4584 4.63302 9.39855 62 58 53
-3.33266 2.25344 10.3118 100 86 82
-3.34195 5.67793 8.25589 140 134 123
-3.6411 4.71381 10.2997 94 90 85
-4.06779 2.88039 10.0145 160 152 141
-3.59417 5.63854 9.26903 26 26 26
-2.14524 5.01073 10.9091 124 118 112
-3.96527 6.13281 11.3142 118 108 98
-1.97196 4.47295 10.3556 88 84 78
-2.46071 5.64011 9.79457 27 26 23
1.65274 4.85493 10.8308 166 138 118
-1.76935 3.56526 10.9077 130 123 112
-2.24538 2.89652 9.01238 146 94 102
-1.97343 4.11687 9.38281 159 152 142
0.333638 6.33514 11.5371 4 0 0
-0.0746965 4.92074 10.4655 80 64 42
-3.003 4.30687 8.23278 46 46 42
-2.32809 1.97278 8.64025 192 180 162
-4.23796 3.71842 9.51856 160 152 142
-3.60737 5.57956 8.94822 21 21 21
-2.36501 5.94376 10.4592 80 74 64
1.29247 5.86003 11.1806 92 52 28
1.47831 4.13333 11.4671 204 180 158
-1.8558 5.14734 10.979 184 176 166
-3.55158 4.08954 10.3672 36 34 34
-3.14491 3.67742 9.20866 54 54 51
1.19654 6.78407 11.1419 18 16 13
-3.3813 3.04514 9.22289 46 38 20
-3.01553 5.20305 9.57374 45 44 40
-3.33161 2.99892 8.53772 202 176 101
-3.45521 2.91589 8.5917 72 64 36
-3.9569 5.54528 9.57704 35 34 33
1.21957 6.3806 11.3599 69 36 22
1.2071 6.57248 11.2793 24 16 15
-3.10046 5.82691 8.95791 47 48 44
-3.84479 5.87762 9.57436 48 46 45
-3.79057 5.57376 9.33589 32 32 30
1.07558 4.12693 11.5673 112 58 32
-3.55427 5.61223 9.19447 16 15 13
-3.44445 5.57613 8.94199 17 16 16
1.29065 5.66795 11.1763 92 46 26
-1.72807 6.34743 9.77218 160 152 138
-4.1967 5.53035 9.65351 174 169 152
-3.08486 5.42924 7.85707 156 150 134
0.462009 6.01568 11.0813 84 40 21
-0.171779 6.41388 10.8219 26 24 22
1.28842 4.79396 11.1814 250 235 221
-1.71337 -0.0467386 16.2756 182 166 150
0.175381 6.51573 10.9715 35 34 34
-3.44379 5.54759 8.63128 16 16 17
-0.855912 5.16876 11.3534 184 94 3
0.478177 6.47129 10.2482 18 14 14
-2.19434 6.02617 9.809 24 24 24
-0.0624716 4.14594 11.697 124 62 40
-3.2552 5.78639 8.7336 22 22 20
0.380666 4.5116 10.9144 114 58 28
-3.96934 0.148583 15.3581 172 159 142
-1.80153 4.21062 10.3801 148 140 128
-0.400278 4.96448 11.57 222 208 187
1.17849 5.58898 11.1397 78 32 12
0.175425 4.93379 10.7979 186 160 130
1.03762 5.15435 10.8477 96 46 20
-3.24147 5.72816 9.11683 7 7 7
-2.75405 5.61439 9.55645 36 35 32
3.93078 5.3506 18.1019 190 176 158
-0.020658 5.11102 10.9962 96 80 59
-2.63974 3.11133 9.46236 44 39 38
1.42381 4.62185 17.6397 192 178 158
4.74948 -1.71969 18.9197 168 152 136
-2.75817 5.97645 9.17727 16 14 14
0.221775 4.80956 10.8232 16 14 12
-3.96926 4.91067 9.94136 148 140 132
-0.144739 3.93555 12.4265 206 179 160
1.29726 4.18881 10.5765 68 20 4
-2.71618 4.47863 9.01809 44 40 38
1.04698 5.45345 11.0498 56 18 6
-2.90629 4.13236 9.20748 28 26 26
0.590459 -1.77973 13.1261 178 164 148
-4.23165 0.141142 15.2028 174 160 144
-1.8586 -0.0604009 16.2242 183 167 152
3.14128 3.97525 18.1353 184 168 151
-3.20545 -0.226168 15.796 190 175 159
1.11871 4.84015 10.9169 137 75 34
-2.68815 -5.35927 16.7463 181 166 150
-3.71164 0.796591 15.4228 178 164 147
-3.41749 0.233291 15.6647 176 162 146
-2.75015 4.44399 9.06353 46 42 39
2.03341 6.69253 11.2926 118 113 104
-2.53719 4.33296 9.24114 36 34 30
-1.87629 3.53126 9.86192 41 38 34
-3.25521 3.90406 12.057 93 66 68
2.14728 6.90562 11.2434 175 170 160
-2.30806 3.73719 9.65367 48 46 42
-2.53168 5.62565 9.61379 40 38 35
-4.10492 4.29153 9.63409 196 190 180
-3.28339 5.74193 8.81473 24 23 22
-4.01298 3.55047 9.21318 196 185 170
-3.39452 3.79262 8.91693 102 98 92
-0.316096 4.15484 12.2899 200 173 150
-2.92711 5.3909 9.34331 44 42 39
-3.018 2.781 9.12436 38 36 34
-4.20778 0.0619283 13.561 174 161 144
-2.65912 6.09145 9.44729 24 24 23
-3.76214 0.0096464 13.8623 184 171 156
-2.01502 4.79166 10.6297 66 61 51
-1.95195 5.02946 10.3633 202 195 182
-2.92011 3.6468 8.80303 53 52 50
0.0564235 3.75683 12.0896 206 178 156
1.08849 5.62303 10.9423 114 52 20
-2.57804 4.8677 9.01638 164 148 132
-3.00458 5.89709 9.0572 30 30 28
-3.13669 5.5601 8.35091 18 18 18
-2.26421 4.1154 9.6048 50 49 46
-4.41923 2.59958 10.5359 192 180 164
0.517041 5.83233 10.9443 112 56 25
2.51687 6.86649 12.6866 202 192 178
0.0951599 5.1752 11.1058 136 112 82
-3.32902 5.84733 8.94928 12 12 11
2.02596 5.93256 12.2136 102 85 72
0.864952 4.43777 10.9938 81 28 3
1.65525 5.79171 11.8192 105 50 13
1.04252 5.11368 11.0471 101 50 20
0.424356 5.68547 11.0354 76 34 12
-0.826259 1.22158 16.7373 180 166 148
2.8751 2.99321 17.9247 183 168 149
0.914358 5.47608 11.055 56 18 10
0.737036 5.06671 10.7478 132 64 22
1.0937 6.05282 10.8934 98 48 27
1.03823 4.41322 11.0126 69 24 2
0.416796 6.40299 10.9833 17 12 10
-4.98947 3.36808 8.65646 151 140 126
-3.32301 2.46296 15.3053 184 170 152
-1.91087 1.52519 15.9424 182 167 150
-0.655674 -2.01143 16.3612 179 164 149
1.56237 6.59333 11.8106 86 76 68
2.64881 3.0185 17.2694 184 170 152
1.07983 4.77844 11.2073 85 38 14
0.619524 3.55679 11.295 196 184 165
-2.38859 0.774545 6.75401 188 174 158
-0.379574 4.70355 11.4585 190 182 170
-3.32052 5.77341 8.68991 23 23 23
1.66213 6.66711 11.7391 100 89 81
-3.47966 5.964 8.65662 130 125 111
-4.55297 3.01107 7.79354 194 180 163
0.298151 3.86569 11.68 124 56 19
-2.03748 2.80626 9.3358 62 47 46
-2.50053 2.76354 9.42702 113 72 74
-1.9054 2.82049 9.6806 54 50 44
-3.61765 5.7923 9.02323 9 9 9
0.023109 4.45165 11.5939 103 52 24
0.258267 4.50366 11.5105 102 53 20
-2.63681 2.8897 9.55176 41 36 32
-2.2999 2.25233 9.22374 89 82 73
-0.400441 5.10518 11.3832 222 202 181
-2.82527 6.00232 9.18954 26 24 24
-3.0598 5.85312 8.84154 10 8 9
-1.5799 6.30611 11.6393 196 186 170
-3.16047 5.04109 9.11418 46 45 41
-2.53692 4.09007 9.52783 42 41 36
-3.07981 3.05949 9.03821 40 38 34
-1.1281 4.66875 11.2861 218 208 190
-3.5953 5.84792 9.07727 23 22 22
1.18047 4.28914 11.2805 72 28 8
-3.92057 4.57484 10.1315 138 132 118
0.00254655 3.93171 12.2153 78 26 6
-2.73329 6.00313 9.23509 18 18 16
-1.97286 3.80559 9.87968 48 45 40
1.79832 6.66649 11.5153 114 106 98
-2.92176 5.43157 9.4041 40 39 35
0.452592 3.59916 11.6599 193 179 160
-0.754811 6.3289 9.36685 205 196 181
0.193098 5.0942 10.7141 144 116 84
-3.06075 5.84818 8.83803 18 16 17
-1.43089 3.08916 3.47124 214 202 188
-3.38889 5.81905 8.71223 27 26 26
-2.77636 -3.013 17.366 179 163 148
-3.0203 5.98678 9.04619 15 14 13
-4.01663 5.75281 10.514 130 123 118
-4.46662 -2.29595 16.3183 168 152 137
-0.329612 4.26387 12.4016 214 186 163
-2.45096 4.52711 9.44522 49 46 41
-2.18082 2.56369 9.23237 138 81 88
-5.38977 -2.24589 15.7907 177 161 146
-1.97253 3.79648 9.69346 48 45 40
-1.76916 4.71177 10.6231 145 136 122
-2.66959 -3.04927 17.4089 182 166 150
-2.43321 -4.84162 17.2513 188 172 156
-2.96657 5.45398 9.2085 42 42 38
-0.752349 3.56568 11.5724 197 182 161
-0.0951825 6.42236 10.9461 56 54 52
-3.08262 4.75336 9.39941 30 29 26
-3.71013 5.84788 10.2685 20 20 18
1.4449 5.46181 11.3151 84 38 16
-2.05909 4.48293 10.395 96 94 87
1.65061 5.0802 11.1136 184 156 131
-3.51646 4.93965 9.57377 104 100 94
-2.51665 5.70628 10.0332 20 19 16
0.110142 5.44163 11.308 101 74 45
-3.70977 5.51301 9.13123 44 44 44
-0.0712066 6.2985 11.246 24 22 19
-4.01938 3.42941 9.47792 145 138 126
-3.71132 5.58611 9.43593 14 14 14
-3.1944 2.00809 9.80477 153 146 130
1.65152 4.17043 11.1735 184 148 116
-3.52959 5.55058 9.09839 30 30 32
1.60157 4.95352 11.221 107 47 17
-2.16245 4.87495 10.5465 97 92 84
0.858687 5.10963 11.7939 122 61 24
-3.94151 6.05597 9.75736 23 22 21
-2.48304 5.46146 9.82959 44 42 39
1.30025 5.21927 12.4471 86 34 5
0.480727 4.11808 12.7588 156 99 51
-3.36189 3.9203 8.74682 100 98 90
-3.25513 4.57168 9.01119 66 64 58
-3.59044 2.58731 9.9474 56 54 48
0.108864 4.86011 11.8875 91 38 8
-3.40147 4.10033 9.17352 70 66 61
-3.92738 4.73277 10.4724 55 52 46
-2.46883 6.13609 9.57425 22 22 19
-3.40707 4.19163 9.33182 79 76 70
0.327366 3.75884 11.7723 170 136 107
-2.0255 3.0228 10.1149 37 32 30
-3.55702 2.14135 10.8947 192 180 164
-2.79594 2.51498 10.1841 96 97 90
-2.3321 3.13259 9.23624 147 94 102
-0.641433 3.92256 11.1616 202 189 168
-0.0127691 5.57092 12.358 16 13 10
-2.36874 5.90125 8.98816 34 33 32
-1.99952 4.65896 10.3114 66 60 51
-2.37938 4.50386 9.49915 51 49 44
-2.83234 2.94101 9.80592 40 36 34
0.712279 5.33697 11.1682 98 41 8
-3.19072 3.45982 7.72263 96 92 84
-2.49257 5.83913 10.3765 35 34 30
-3.36925 4.92864 8.92491 106 104 95
1.44139 5.17292 11.1351 108 56 32
-3.92572 5.57836 9.41119 34 33 30
-3.17841 3.32417 7.43948 158 154 144
-3.09256 1.99573 9.27174 128 120 109
-3.27312 4.04393 8.72206 78 76 70
-2.3402 5.90423 10.3657 54 48 42
-3.24159 2.47276 9.25646 58 56 50
-3.24094 3.60876 7.92858 74 71 63
0.983227 4.33639 10.8041 81 30 6
-3.06284 2.52104 6.79264 82 78 66
-3.22222 2.94614 7.76695 60 130 84
-3.66023 0.207822 13.2195 182 168 152
0.192541 6.63129 11.1564 22 20 19
-3.42532 2.59747 9.43959 88 87 80
-2.27499 4.55297 11.2619 50 48 43
-2.92744 2.47657 9.36092 62 60 54
-2.13471 2.56707 8.11585 146 92 100
0.619322 4.96415 9.86703 59 18 6
-0.14109 5.81184 11.7671 199 183 170
-2.4667 2.58448 8.3751 43 38 36
0.907344 6.2288 10.2166 32 29 26
1.89768 5.57567 11.9679 170 130 108
-3.41651 2.21886 10.9047 166 158 140
-3.12117 2.22852 10.9342 180 170 154
1.40012 5.17945 10.9178 107 64 42
1.76925 6.70665 11.02 36 34 30
1.01281 6.60145 10.6378 23 22 20
-2.02641 6.03958 10.0715 87 76 70
-2.41476 6.10446 9.30375 28 28 26
-1.57923 3.94148 10.7458 141 136 120
0.225282 5.00439 10.5068 94 56 29
-2.50178 6.1521 9.6351 22 20 22
1.43524 4.0716 11.3253 208 180 158
-2.88952 5.9396 9.23926 22 22 20
-2.72852 6.03536 9.19824 14 14 10
-5.35048 2.69002 16.7473 178 162 147
1.33776 4.70239 10.59 106 46 16
-2.21578 5.79918 9.57632 32 30 27
-0.223181 4.08023 12.5225 204 166 140
0.0700389 4.05523 12.9282 216 184 154
0.280053 6.71845 12.868 54 42 29
-3.88712 5.08001 10.3252 42 39 35
-2.74528 3.32346 9.58561 46 42 38
1.3867 4.60801 10.4465 100 44 16
-2.35642 5.78071 9.8166 2 2 2
1.90406 5.11062 11.6408 94 38 8
-0.37897 4.56213 11.4584 176 168 154
0.215268 5.28779 10.9046 98 74 44
0.384203 6.4755 10.583 14 10 12
-0.0720068 5.65048 11.7808 62 6 2
-2.18789 6.06281 10.3662 67 58 51
0.655383 6.26138 11.0737 100 51 24
-0.145852 5.00963 10.8851 19 16 15
-4.04403 3.63006 9.45618 170 160 143
-3.07106 2.74213 8.89979 42 38 34
-0.323209 4.90362 11.1174 132 109 84
-2.71863 2.56281 2.63577 215 203 187
-1.09814 4.85161 9.92349 212 200 184
-0.411152 5.05182 11.5203 230 214 195
0.0880852 5.07688 10.9593 136 112 78
-2.79195 5.39792 9.38125 42 41 37
-1.80574 4.04021 9.98917 109 102 90
0.388332 5.4317 10.8927 71 30 10
0.0206324 4.59505 12.1481 99 48 18
-2.56079 -0.287293 17.5239 180 164 150
-3.6531 5.72105 9.06766 18 16 17
-2.43562 3.69082 9.07065 50 48 42
-4.05747 5.93011 10.5156 32 30 28
0.227703 4.72349 10.727 20 16 12
-3.46364 5.22393 9.45442 32 30 27
-2.49733 5.98384 9.54728 8 7 5
-3.08771 3.52794 9.07182 52 52 46
-3.26144 3.31269 9.17045 38 37 32
-3.61175 5.51787 10.1246 24 22 20
-3.92081 4.6933 10.6479 69 67 60
-2.60939 5.96541 9.37427 8 8 8
-7.65013 6.85836 17.6456 225 217 200
1.02702 4.35235 13.132 136 76 48
-4.68654 4.86176 11.0218 223 214 200
-3.11023 4.57388 9.44561 38 38 34
-0.0456158 4.25935 10.7385 100 50 16
-0.0667465 6.08139 11.5285 20 7 1
-0.606016 3.71117 10.0839 113 47 13
-0.3108 5.4517 11.5773 58 14 12
-2.606 4.42959 9.73284 4 2 2
-3.10861 4.34269 9.00345 40 38 34
-4.03507 3.47954 8.56714 16 16 14
-3.73913 4.03689 9.27522 111 106 97
-3.62406 5.66113 9.51366 5 5 5
1.48825 6.67356 10.8764 36 32 28
-3.99305 5.74282 9.50549 28 26 26
-3.94047 2.6833 9.05172 202 189 178
-2.88457 4.27778 9.17837 21 19 20
-2.69381 2.39187 2.6195 215 206 190
-3.05321 4.55975 9.31472 32 30 30
-4.00435 3.08406 9.09712 54 92 63
-4.35075 4.31648 9.44023 138 135 123
-2.40009 3.89535 9.47133 54 52 48
-2.68813 4.55132 9.2491 52 50 44
-3.09869 4.03951 9.34328 65 64 57
0.145154 6.44311 10.8616 18 18 18
0.741789 5.70879 10.8537 65 33 12
-2.08813 4.03595 9.67892 54 52 47
-2.41368 3.91252 9.35174 52 50 46
-3.15606 5.87138 9.06796 20 20 20
0.81772 6.25068 11.006 66 30 11
-0.0402343 6.45618 11.5749 28 24 20
-3.70179 4.15306 9.46418 95 91 82
-3.86092 3.92094 8.99225 200 190 172
-2.49452 5.40157 9.40824 81 76 70
-3.50584 5.43813 9.82942 11 6 2
-2.45313 5.50137 9.77752 58 51 44
-2.03836 4.44937 10.1798 157 153 146
-2.36114 5.96534 10.4849 98 88 82
-3.63847 4.76123 10.4379 88 84 78
-0.311381 5.17011 11.1803 164 124 112
-3.65823 5.18967 10.1538 98 94 88
10.5642 9.35575 20.855 139 126 110
-2.09134 3.01855 9.10134 77 52 52
1.30365 3.92673 10.8839 225 190 167
-3.05223 4.63562 9.18713 33 32 30
0.971579 4.62422 10.6307 255 244 218
-4.17371 3.84641 9.69198 26 22 18
-3.6677 5.56538 9.27295 10 10 8
-2.07378 4.48904 9.84952 76 74 66
9.36347 9.59354 22.1803 142 128 112
-3.67094 4.72924 10.5331 95 92 85
-3.96758 3.77619 9.16613 30 28 28
1.4649 4.01589 10.9093 194 154 126
-3.66509 4.9858 9.67934 98 95 89
-3.34478 3.01354 9.083 48 39 20
-3.90784 2.68711 10.3988 116 108 95
-3.8618 4.56135 10.1366 52 48 42
0.203691 3.93858 12.6756 214 188 164
-1.82029 6.15433 9.86839 114 109 102
-0.368226 4.37709 12.1801 199 168 146
-4.28666 5.71351 10.0264 39 36 34
-2.35311 4.39246 9.20093 52 48 44
-3.28164 4.82852 9.05821 60 58 54
0.461255 4.64349 10.7998 95 40 10
-3.70442 4.77368 10.7996 100 97 86
-2.11316 4.37318 9.3831 58 56 52
-1.80068 4.05429 10.0637 139 131 121
-3.18154 4.52843 8.54555 50 49 44
-3.15278 5.82441 8.95027 44 44 44
-2.09279 4.32564 9.55858 75 73 68
0.788438 3.94918 8.68625 173 143 122
-1.52241 2.33163 6.26378 186 154 132
-1.08849 3.72573 7.90559 64 18 18
-1.84115 4.06091 10.267 42 40 35
1.01637 5.91072 10.8785 68 32 10
-2.94079 2.00746 9.30763 176 167 156
-2.05079 4.97478 10.4316 64 62 55
-3.66102 4.85 9.44711 78 76 68
0.778081 4.79874 10.7616 96 45 18
-3.67492 5.84553 9.15579 21 20 20
-0.0346606 4.94691 11.237 135 114 80
-0.333791 4.5288 11.9315 180 154 134
-3.32881 3.04969 8.9956 100 88 47
-2.55913 4.13503 9.48936 32 30 28
-0.401107 4.30773 12.0686 188 160 136
-3.29865 5.97475 9.07743 16 15 16
-3.50864 2.70577 9.13052 6 4 5
-3.36896 5.95578 8.99473 10 10 10
-3.53164 3.80554 9.04135 84 80 72
-0.328744 4.51819 12.1313 166 136 118
-3.63445 3.55854 8.90198 35 36 30
-2.61584 3.10351 9.50887 42 36 34
-2.71282 4.38427 9.01483 46 42 38
0.207727 6.18697 11.4728 47 16 8
-2.8252 4.38352 9.04907 52 50 44
1.53452 5.79644 11.7174 88 60 30
-3.45059 5.80005 8.74034 28 27 26
-2.38053 4.52982 9.3742 51 49 44
-1.15458 4.06466 11.0191 166 146 118
1.44874 4.50088 10.4463 94 34 6
-2.14182 2.33677 9.40633 47 44 42
0.0846001 3.88281 11.8385 74 20 4
-3.81912 2.547 9.84384 183 174 161
1.11757 4.42708 11.0898 73 31 12
1.00381 6.42563 10.6819 8 6 5
-3.10239 5.61251 8.47282 28 27 28
-2.38312 4.605 9.40431 48 46 43
-1.97361 3.90112 9.50397 48 46 42
-3.39611 2.54434 9.5291 47 44 38
2.26779 6.04661 13.1138 174 140 121
-2.10419 4.84036 9.85511 109 104 96
2.21995 6.16008 14.4337 159 110 80
-3.77493 4.01168 9.24413 141 130 114
2.17718 6.72882 13.508 152 104 70
-2.54268 3.92079 9.2435 43 40 35
-3.86622 2.69174 9.15373 156 151 138
-3.98067 3.25268 8.98506 122 120 108
-2.08688 3.59235 8.79009 50 48 42
0.838328 4.6993 14.1587 100 43 17
2.34301 5.94967 13.447 109 51 18
-3.51894 2.34284 9.72638 144 132 121
2.02028 5.78147 12.4128 146 116 99
-1.95055 2.76519 9.91728 146 134 120
-3.64307 2.88865 9.26447 54 52 46
-3.09376 4.46105 9.18966 36 36 34
2.05823 6.32242 11.7745 209 200 184
0.316343 4.62396 10.7706 56 22 6
-3.37546 3.72642 8.29752 104 100 88
-0.626998 4.66609 15.4257 197 182 161
-0.338544 3.99477 12.0404 216 186 160
-2.43596 3.70379 9.36011 48 46 38
-3.61684 5.14313 9.60636 140 135 124
-2.89557 1.87689 8.68577 175 168 154
-2.09071 4.80694 10.079 51 48 41
-3.65152 5.69264 9.63049 22 20 21
-2.45071 5.75807 9.91346 43 39 36
-3.53458 3.73499 9.79915 123 128 75
-3.64313 5.65999 9.05094 20 20 20
-2.88894 4.30794 9.24202 22 20 22
-3.0425 2.40972 9.25769 88 87 80
-1.12874 3.79405 11.1279 209 178 145
-4.02148 5.25706 9.16146 36 35 33
-4.11715 4.60726 9.34968 71 68 63
-3.55206 2.92917 9.43856 32 30 28
-3.34219 5.69736 9.17989 10 10 10
1.56826 4.33159 13.0489 196 184 165
0.444466 6.38134 10.0433 23 22 21
-3.83821 3.85362 9.15454 162 146 128
4.10746 5.6999 11.5835 212 204 188
-3.86392 3.91217 9.11768 182 166 146
-3.1711 4.70205 8.92708 50 50 46
-2.78786 3.5755 8.91346 75 73 68
0.152457 4.26116 10.6223 100 52 22
-3.19089 4.8566 9.1785 50 50 46
-3.10569 4.47275 9.45681 36 34 32
0.690665 3.5142 10.7745 196 186 166
-1.65354 2.81288 9.57967 198 185 164
-2.28174 3.74437 9.42131 66 64 60
-3.66251 3.16008 8.77146 54 53 44
-3.7723 3.04514 8.84952 73 69 62
-0.300814 4.21821 12.4544 187 158 128
-3.10092 3.14155 8.92306 48 46 41
-3.28645 5.70873 9.40533 5 5 5
-0.278582 4.163 12.4734 182 154 128
-3.53283 4.64423 10.0604 101 98 91
-3.21859 4.85926 9.12637 51 50 46
-2.95167 5.3355 9.47434 46 45 41
-3.34119 4.58189 9.13401 62 60 54
-0.111608 4.00366 12.5655 200 168 143
-3.63267 5.28148 9.80675 130 126 117
-2.25109 4.55105 9.4317 53 51 48
-3.01215 4.33758 8.78925 38 36 34
-3.10648 3.48558 8.90066 52 51 48
-2.57273 5.92674 9.55379 10 10 12
-2.80261 2.40165 9.83557 2 2 1
2.11354 6.80414 11.187 44 39 32
-2.77801 3.51926 8.81309 78 77 70
-3.90169 2.59412 10.0096 186 178 164
-0.71202 6.40035 9.48987 207 200 186
-2.98522 5.77947 9.29334 25 24 18
-3.17257 2.25925 9.8306 69 66 59
1.59517 6.89113 10.8547 189 183 170
-3.54906 2.95417 9.55951 9 8 7
-3.45703 2.77464 9.48717 10 8 8
-3.89291 5.48872 9.60985 31 31 29
-3.17722 5.95105 9.48962 12 12 11
-3.34257 3.16617 9.41101 74 67 34
-3.7428 4.3906 9.31833 49 48 45
0.747283 6.60712 10.5745 8 8 8
-3.56427 2.73355 9.32889 37 36 34
-3.37002 5.83428 8.86334 14 14 14
-0.503159 3.76797 11.3405 199 171 145
-2.07222 4.65377 10.1343 53 52 47
-3.30279 2.50077 9.71849 86 84 77
-3.43136 4.04552 9.02883 110 106 97
-3.07599 4.14912 9.62181 56 55 50
-0.154935 4.27732 11.4357 104 52 20
-3.97904 3.28489 9.61585 68 73 61
0.280622 4.55574 10.6774 46 14 4
-3.17716 5.86897 9.0439 22 22 22
1.24838 6.28554 11.3184 100 56 28
-3.63863 5.80831 9.15643 23 23 23
-4.14202 3.39148 9.78273 82 81 76
-3.15251 3.75834 9.11182 40 38 34
-3.45797 5.82796 8.75328 26 26 26
-4.16841 3.34993 9.83398 170 170 157
-2.31481 2.14904 8.87591 116 108 96
-3.29075 3.33437 9.17325 40 39 36
-2.6829 5.11692 9.23246 148 138 124
-3.21732 2.48877 9.2421 73 72 67
-2.29829 3.72266 9.39013 65 64 59
-3.53303 5.84378 9.1797 7 7 7
-2.16468 3.43255 9.49798 38 24 22
0.359675 3.76959 11.0907 110 52 19
-2.14268 3.59905 9.36981 51 50 45
-3.7692 3.10554 8.99991 72 93 74
-3.65 6.00301 10.0463 17 15 16
-3.75043 2.66555 9.19119 166 159 150
-3.6146 4.56765 9.815 86 84 78
-3.97417 5.44756 9.54632 40 40 40
-2.5535 6.01945 9.2393 16 16 16
-2.97234 4.71819 9.32864 36 33 31
-2.06024 4.82032 10.5169 92 89 78
-3.67114 3.99258 9.09811 188 184 172
-0.446924 5.30721 11.4413 124 81 42
-3.80213 5.44764 9.5839 23 22 21
0.684638 4.69092 11.8798 88 30 2
-0.258093 4.1938 11.2095 128 68 32
-3.68377 4.44082 9.66482 72 69 65
-2.72407 3.51367 10.1576 48 44 42
-2.01215 2.1117 8.22365 54 53 51
-2.52682 5.2392 9.35724 54 48 40
-0.337681 3.85564 11.5738 180 146 120
-2.84909 2.68079 9.26855 10 8 7
-2.06721 2.36168 9.17162 169 152 145
1.74353 6.68083 11.2315 52 46 42
-3.09963 5.87051 8.96043 18 18 18
0.409619 6.1063 10.8706 60 24 4
-0.0483227 6.2905 10.2969 38 36 36
-3.70466 3.41821 9.28494 117 124 108
-3.09966 3.14086 8.80478 48 48 42
-3.71058 5.77969 9.63518 12 12 12
-3.04119 3.76163 8.9515 57 56 51
-5.06291 -0.0200699 15.4547 185 172 156
-4.71777 0.0721462 15.871 180 168 152
-4.19413 0.128337 15.8377 184 172 156
-2.97619 2.37715 9.49268 59 58 52
-2.3613 3.17964 9.07763 155 102 110
-3.54483 2.70339 9.94325 90 90 82
0.487391 5.63667 11.096 80 36 14
-2.22115 2.50725 9.13189 152 92 104
-1.51282 3.91155 10.7637 168 160 137
-3.01224 3.25531 9.00861 44 44 40
-0.902907 3.45917 11.1119 203 190 173
-4.12149 3.81997 10.512 134 132 122
-2.5971 4.11603 9.38 22 22 20
0.807889 6.68019 10.8154 10 9 8
-2.76027 3.3943 9.82579 47 44 43
-3.21286 5.71122 8.64143 32 32 32
-3.9503 5.09977 9.16869 170 169 160
-3.10813 3.16963 8.9668 51 50 46
-3.94511 5.27221 8.98952 17 16 16
-3.60037 4.9879 9.69952 108 104 100
-6.30738 3.9264 10.3568 196 186 172
-2.26611 3.44498 12.8975 124 94 96
-3.81985 3.79941 9.00464 162 149 133
-2.84078 3.34031 9.08949 49 48 45
-3.60747 2.98988 9.8175 22 21 18
-2.09865 2.38631 9.16037 86 66 68
2.48107 7.33766 13.9205 218 210 198
0.668651 3.45283 10.7801 200 192 172
-3.79 4.5924 10.2691 88 87 83
-3.41084 2.21748 9.16778 164 157 146
-2.91997 2.19133 10.2759 172 164 152
-2.8277 4.55701 9.55513 48 46 44
-3.95268 0.0371517 12.7769 182 174 158
5.23825 -8.75131 15.0917 188 176 159
-1.84423 -6.69863 14.3046 203 192 174
-4.39307 3.23946 9.8983 205 195 183
