ply
format ascii 1.0
element vertex 1352
property float x
property float y
property float z
property uchar red
property uchar green
property uchar blue
end_header
5.60634 -2.15972 13.3167 127 108 106
7.22984 -2.23435 14.0018 62 30 16
5.58908 -2.11423 13.1145 186 166 160
6.97299 -2.17017 13.6891 114 50 42
6.33005 -2.13712 13.4684 114 110 97
5.56521 -2.10991 13.3161 192 178 174
-5.45267 -2.4888 14.6667 64 35 22
3.84886 -2.2827 14.3867 154 124 108
5.2478 -2.11704 13.4776 71 52 44
5.48576 -2.03658 13.1496 130 114 110
6.27188 -2.0464 13.2875 144 136 126
3.93915 -2.17431 14.0676 156 121 109
-5.27099 -2.43678 14.9568 166 109 88
6.42465 -1.96227 13.6421 154 140 132
6.44759 -1.91598 13.3678 151 136 120
4.39814 -2.09305 16.1702 130 104 61
4.28811 -1.9279 16.5655 128 102 60
6.81576 -1.67521 16.2063 18 6 2
4.64857 -1.65672 16.349 126 92 61
4.50786 -1.21477 16.5358 126 39 30
5.84549 -0.959439 14.7093 54 28 14
5.25151 -0.919712 14.5397 121 26 2
5.78451 -0.89474 14.7117 130 81 62
6.30537 -0.850872 14.4984 180 146 121
5.32855 -0.793484 14.9105 172 74 44
5.87483 -0.686384 14.7858 43 17 7
6.2661 -0.634276 14.836 144 72 40
6.38176 -0.639341 14.582 132 107 89
6.49718 -0.623054 14.6685 52 37 25
3.7833 -0.67731 16.29 110 83 59
6.68371 -0.54906 14.7481 70 49 22
4.39014 -0.591321 16.2397 20 8 4
4.20755 -0.556965 15.9388 54 20 6
3.74648 -0.553464 16.2829 95 69 45
3.95731 -0.460101 15.9708 61 25 14
6.39481 -0.38125 15.0224 133 90 72
5.21052 -0.375254 14.6941 71 66 68
6.60361 -0.358387 14.9327 73 34 20
6.10667 -0.295873 14.8507 162 118 97
5.00247 -0.321585 17.2554 143 128 104
4.93557 -0.272144 14.7053 158 130 118
5.717 -0.221111 14.9202 130 83 66
-6.63035 -0.392618 15.3146 142 118 92
-3.01203 -0.335747 14.7775 126 78 64
-3.05199 -0.291946 14.7176 166 114 98
6.0877 -0.0148922 14.8229 89 44 26
-6.4399 -0.139586 15.513 128 106 87
4.00673 0.175977 16.1438 137 102 82
4.86978 0.158933 14.8603 166 120 98
5.57678 0.174134 15.0363 102 70 62
-6.07543 0.0119461 15.6499 36 11 4
3.86169 0.244145 16.0999 166 133 110
4.03205 0.312624 16.3613 82 58 38
4.12867 0.324412 16.5225 36 16 4
3.55097 0.477757 16.7366 29 15 3
6.13885 0.487218 15.4399 46 18 7
-5.69467 0.313521 13.3518 144 96 81
3.57018 0.700187 16.9553 148 94 64
6.0807 0.700757 15.4896 24 12 6
7.37911 0.99031 16.5484 70 34 9
3.36301 1.02386 16.6499 162 128 110
4.37089 1.04861 16.1057 86 71 52
4.2095 1.56044 15.2474 200 160 138
5.0257 1.8135 15.0975 190 150 130
5.20278 1.84986 14.9522 112 66 41
-0.400932 1.71799 13.6853 82 29 22
4.38751 2.07988 15.6744 128 92 80
4.54742 2.24999 15.9132 236 221 214
1.10357 2.04214 13.9834 157 129 118
-1.3688 2.15898 13.95 153 120 107
1.5545 2.35861 14.4532 148 129 114
-0.895409 2.19486 13.7192 98 72 64
-6.23116 2.56423 15.8269 194 141 110
1.66171 2.4415 14.4704 151 134 128
-0.392018 2.29497 13.4085 156 80 76
0.411296 2.36276 13.3721 80 48 42
4.38788 2.9191 15.6608 191 165 156
-0.456197 2.49355 13.452 165 145 135
0.282734 2.5074 13.4281 139 57 51
0.756914 2.56257 13.36 140 125 118
-0.744978 3.30363 14.2041 153 94 84
-0.69149 3.33683 14.2616 74 16 10
5.51003 -4.67111 14.1135 209 158 136
5.67824 -4.23658 14.2573 160 112 86
6.06308 -3.97416 14.3922 159 140 125
7.69073 -4.08265 15.3793 102 78 44
3.92758 -3.09017 13.894 100 28 14
3.47858 -3.34402 15.3096 97 71 42
5.82803 -2.85674 13.155 13 8 5
3.79678 -2.8303 13.739 154 121 103
4.93045 -2.68425 13.0597 158 128 116
5.05022 -2.5225 12.8766 140 120 112
6.3215 -2.53328 13.2818 158 134 127
6.552 -2.45678 13.2476 164 121 101
5.05002 -2.35489 13.4351 110 84 75
5.4903 -2.31324 13.2731 196 178 176
5.4141 -2.30886 13.3281 77 62 56
-2.884 -2.83567 16.2834 172 116 86
5.53055 -2.21091 13.3308 109 92 86
6.69352 -2.20278 13.624 153 138 128
6.34739 -2.14672 13.4928 100 99 85
-3.00805 -2.72564 16.4319 68 48 20
6.36861 -1.93075 13.4863 157 142 134
3.94661 0.279221 16.3499 146 116 99
5.31617 0.801938 15.123 172 151 136
5.36184 1.97001 15.0313 166 124 108
-0.402953 2.3225 13.4461 198 154 148
4.64195 -1.16684 16.1749 66 34 12
-4.17383 -0.215388 14.3248 88 34 14
5.05926 1.5216 15.082 107 63 43
-2.53705 2.06517 16.2385 182 130 107
-2.8634 -2.71545 15.932 65 40 14
0.455614 2.25667 13.3367 96 76 60
3.50141 -3.34551 14.765 100 74 42
5.45274 -2.61204 13.255 136 116 111
4.46882 -2.12388 16.3613 128 86 47
5.05978 -1.11148 14.4123 125 18 6
-4.75564 -0.481536 14.9207 113 74 48
5.20461 -0.182659 15.2774 114 86 78
-2.94835 -0.306814 14.9645 116 68 53
-4.21841 -0.241683 14.4125 84 28 9
4.91266 0.110197 14.8178 80 32 16
-5.87575 0.522231 13.0563 148 72 40
3.30925 1.45844 17.505 104 90 67
-6.38998 2.63313 16.1767 193 141 112
1.49946 2.43761 14.3146 131 118 110
4.42665 2.93154 16.3312 229 214 206
0.706956 2.46701 13.4665 159 144 142
0.713092 3.04657 13.6594 68 22 17
-2.0205 -2.71092 15.8431 76 40 28
-5.15058 -2.56711 14.9853 118 88 68
4.93776 -1.98893 13.2374 140 115 106
4.4111 -2.10948 15.8491 100 57 26
5.00514 -1.06832 15.7101 84 74 54
3.83815 -0.0225173 16.4173 136 107 80
5.17786 0.209544 17.922 68 64 33
3.91978 0.217061 15.947 146 114 92
6.1588 0.480299 15.5228 64 36 20
4.48592 2.21282 16.0224 195 176 170
-0.131535 2.34398 13.3909 136 122 122
0.402193 2.3583 13.3203 90 66 58
3.55844 -2.63979 15.0999 149 124 102
-5.90283 -2.6047 14.5632 128 86 60
-4.18618 -1.25377 17.8256 162 148 120
-4.8428 -0.471896 15.1292 111 72 44
3.94811 0.226293 16.0979 158 125 104
3.3848 0.551453 17.2263 122 97 70
0.700409 2.43736 13.3903 139 126 124
3.60804 -3.94941 15.3527 148 124 95
-3.01276 -3.02228 16.4698 140 130 86
5.54331 -1.36675 15.1639 136 60 46
4.15299 -0.902459 15.9293 136 84 62
5.13382 -0.091962 17.4912 160 148 126
4.96727 1.56129 15.1904 142 106 92
0.078287 1.33762 13.643 152 106 82
-0.537375 2.45806 13.4767 145 54 46
-0.267847 3.39719 14.3189 152 96 96
3.85199 -2.92073 13.7206 135 88 62
-2.07288 -3.09154 15.8414 82 46 30
4.83171 -1.95855 16.8034 106 56 22
5.71102 -1.30665 15.0813 156 131 118
-4.82678 -1.33959 15.6403 92 55 26
-0.95437 -1.08159 16.6968 115 94 57
3.75088 -0.841381 15.8826 66 36 18
-3.75431 0.180288 14.5146 142 98 86
-3.53241 2.26197 16.4115 72 27 14
5.87521 -1.76521 15.2529 150 126 114
-4.04967 -1.2265 17.2235 165 150 124
-4.17327 -1.18507 17.19 93 55 24
3.74897 -0.965564 15.7354 172 140 121
-2.8126 -0.523909 15.3718 76 30 13
5.0174 -0.380939 15.0047 64 42 32
5.02658 -0.0475511 17.5371 38 26 4
-0.385355 2.43206 13.6665 180 158 148
0.460232 2.43638 13.3953 154 134 129
-5.70842 -1.91419 14.812 61 14 5
-5.04121 -1.45817 15.703 140 96 72
3.57765 -0.964917 15.723 68 38 15
5.06728 -0.915354 14.8943 155 124 110
3.72919 -0.821886 15.7675 69 39 22
-2.802 -0.591594 15.1009 69 25 10
4.47458 2.2316 15.9963 199 182 176
-0.364971 2.49807 13.3141 107 96 90
-2.69539 -2.09119 16.6482 137 92 64
3.66212 -0.978957 16.0642 82 54 28
-1.54336 -0.949553 16.1302 114 66 48
5.14987 2.41724 15.2311 88 106 94
1.44141 2.29297 14.266 152 134 118
5.32076 -4.31158 14.5935 158 127 96
5.25948 -4.22982 14.3648 137 82 56
3.85795 -4.48945 16.0238 119 100 57
-2.61615 -3.08372 15.8296 131 88 72
-2.93554 -2.91018 16.4573 82 52 40
-5.38553 -2.65785 15.088 94 65 45
3.56347 -2.60052 15.1688 126 98 68
-2.87708 -2.80011 16.3284 158 110 88
-2.72751 -2.69021 15.9791 82 25 8
-6.03534 -2.50318 14.5917 178 132 105
-5.17107 -2.50272 15.1672 66 29 10
-3.04244 -2.59071 16.4827 116 101 74
-2.65751 -2.47372 15.8154 88 18 4
-6.2365 -2.27713 14.6669 130 89 72
4.29206 -1.85718 13.781 85 48 30
4.89022 -1.72267 13.6267 67 26 12
4.33469 -1.95236 16.4778 173 159 112
-1.18466 -1.88239 16.3745 134 111 90
-2.55132 -1.86025 15.9907 186 132 102
4.58315 -1.7084 16.1509 151 131 89
4.18384 -1.67331 15.8388 159 110 86
4.34825 -1.71147 16.5518 176 152 112
-5.08122 -1.70155 15.4589 56 15 2
5.46353 -1.40867 14.828 149 124 114
-2.94309 -1.60178 16.4752 101 62 28
-1.59003 -1.55315 16.2072 127 81 66
5.22835 -1.30501 14.5782 116 22 16
5.35912 -1.29855 14.666 136 60 55
-3.375 -1.6031 18.1666 106 73 39
3.79856 -1.31764 15.6338 80 20 4
3.68755 -1.29022 15.6492 97 58 36
3.9925 -1.28745 15.6659 169 122 101
4.30374 -1.25324 16.0683 166 99 80
5.35213 -1.16525 15.6931 156 128 117
5.07899 -1.06831 14.4861 176 88 68
5.14175 -0.955059 14.6716 161 72 51
-4.08254 -1.28231 18.8977 160 146 123
-6.63404 -1.04268 15.4511 156 135 113
5.63059 -0.51021 14.64 140 91 75
-7.06239 -0.781335 11.3265 94 94 124
5.51989 -0.286767 14.6438 114 86 81
-1.85514 -0.390322 16.5964 56 17 6
5.66151 -0.166061 14.7945 50 21 16
-2.93829 -0.415474 14.7918 85 40 23
-1.9216 -0.294228 16.6927 110 70 54
5.00068 -0.0508602 17.519 58 46 20
5.29322 -0.00102248 17.9609 110 100 75
4.034 0.182579 17.571 56 32 8
3.60517 0.23937 16.7004 125 101 80
3.61545 0.263533 16.4303 61 43 28
3.69797 0.380457 16.6981 62 40 24
-3.90312 0.0814499 14.4408 104 52 37
-7.14744 -0.0171325 11.4248 185 72 74
-4.49924 0.364639 14.6001 110 65 50
-6.57377 0.111621 11.824 160 112 110
5.4776 0.954487 15.2792 132 100 84
-6.53106 0.195347 11.5289 68 32 30
-6.58172 0.236356 11.8733 154 114 111
-6.57016 0.243539 11.6209 46 18 15
-7.31497 0.220988 11.3097 79 38 32
-5.84882 0.521444 13.0582 147 54 31
5.54601 1.25608 15.3458 202 180 168
4.15848 1.69109 15.1999 222 198 191
5.12526 1.93022 15.0364 158 124 110
5.3845 1.98212 14.9084 156 116 102
-7.77959 0.918756 11.9186 132 53 28
-7.80945 0.92542 11.9039 168 134 106
-0.247631 1.63288 13.2713 36 10 9
6.18602 2.3627 15.2604 54 30 18
4.59284 2.27463 15.1474 112 72 58
-3.40489 2.28249 16.6577 188 140 111
-6.79513 1.31208 12.0512 124 118 125
6.20605 2.69461 15.4123 55 42 28
6.0628 2.69116 15.2951 52 37 30
-6.8126 1.36462 12.1581 114 110 118
4.73995 2.76195 15.3727 49 20 17
-6.7081 1.48291 12.282 105 100 112
-6.66433 1.4967 12.2846 120 112 126
-1.37253 2.25582 14.464 116 95 82
-0.91283 2.31498 14.6297 156 118 106
-6.74553 1.4961 12.2568 36 32 46
4.95982 2.81884 15.2891 60 40 34
-0.984602 2.32594 14.4926 140 116 105
-0.864711 2.17583 13.7002 198 171 165
0.370266 2.12071 13.091 58 38 27
1.49239 2.43367 14.2731 150 129 122
-0.808052 2.1687 13.5725 136 88 86
-1.19407 2.34868 14.27 122 100 93
-6.92404 1.59148 12.2849 124 118 130
1.38921 2.52678 14.2126 166 116 106
-1.41902 2.40486 14.333 186 164 152
0.0906983 2.1961 12.8776 58 34 22
-4.84471 2.54641 15.6846 51 16 10
-1.42651 2.43885 14.3022 120 96 84
1.62555 2.64434 14.41 82 62 54
-0.361116 2.39105 13.4792 242 226 218
-7.83111 1.60886 11.8059 132 92 44
0.661963 2.48553 13.32 82 68 64
-0.263583 2.44253 13.3162 59 46 40
0.594743 2.52656 13.2924 128 115 110
0.536638 2.57557 13.4387 64 47 40
-0.356631 2.47387 13.2144 138 126 121
-0.282473 2.50591 13.2626 178 162 156
-0.361857 2.61657 13.3715 88 74 72
-6.63509 2.28046 12.933 146 80 54
-6.54318 2.26308 12.8659 130 48 36
-0.422056 3.44634 14.3462 154 135 132
-7.2253 2.46488 12.4916 146 84 50
-0.428112 3.73264 14.2378 100 71 63
-7.1951 3.13131 12.9292 136 56 36
3.86474 -4.49051 16.1214 149 136 90
3.81295 -3.15313 13.9591 99 36 18
3.73109 -3.41457 16.1127 134 85 54
-2.40257 -3.02214 15.8083 64 27 11
3.50066 -2.7892 15.3042 96 78 54
3.65174 -2.61749 14.296 131 116 106
3.52279 -2.73343 15.1923 122 100 74
-2.40679 -2.80444 15.8308 178 116 95
-5.96073 -2.64853 14.7064 110 72 50
4.24783 -2.30951 13.5661 118 34 28
-6.04821 -2.51538 14.6619 155 109 82
3.89411 -2.20681 14.0414 164 136 124
-6.20805 -2.3569 14.6649 80 40 22
-6.22301 -2.23864 14.7271 96 60 42
-6.28875 -2.20801 14.7298 57 23 8
4.32274 -1.85878 13.817 90 54 35
4.20784 -1.95021 16.2023 167 161 112
-6.08416 -1.84694 14.6544 124 86 68
-2.70271 -1.93043 16.2979 83 37 13
-2.70207 -1.91015 16.5064 94 47 20
-2.50007 -1.8752 16.1144 201 146 117
4.47526 -1.7112 15.9764 111 78 42
4.29241 -1.65341 16.501 134 106 72
-2.94041 -1.60981 16.4281 97 58 24
5.35348 -1.34245 14.7045 111 31 26
5.13662 -1.37157 15.3375 70 56 42
5.27973 -1.27162 14.6856 173 89 77
3.87926 -1.32548 15.7965 90 28 13
5.03319 -1.2257 14.4367 168 92 74
5.14579 -1.27498 15.637 94 81 66
4.02495 -1.27972 15.727 168 122 102
4.34246 -1.25802 16.1231 148 82 62
5.37652 -1.15228 15.2622 106 58 44
5.40892 -1.11877 14.5653 160 82 62
4.97571 -1.06856 14.3402 162 73 54
5.25797 -1.01581 14.5483 181 96 74
4.89134 -0.965024 14.3039 155 68 48
-3.82357 -1.24854 17.7602 76 40 16
-3.88867 -1.19974 17.4428 117 70 50
4.26628 -0.636123 16.1556 116 84 68
4.3192 -0.575243 16.1018 25 11 2
4.47504 -0.531516 16.2991 20 14 6
4.13884 -0.464537 16.0851 50 16 5
-1.39468 -0.560179 16.3521 98 80 61
-1.86948 -0.402412 16.5233 58 20 10
-7.14437 -0.560574 11.481 115 96 97
5.3975 -0.0841464 16.9198 68 52 32
5.2522 -0.00435751 17.8888 106 96 72
5.47395 0.00813082 17.9788 74 62 32
6.02367 0.0583079 18.482 67 44 20
5.61006 0.079009 14.5816 68 39 25
3.86639 0.149431 17.2296 55 32 9
3.51673 0.158217 16.102 151 124 106
5.61851 0.234189 14.8426 159 100 82
3.56916 0.338116 16.5369 139 113 97
5.62247 0.388134 15.3749 100 63 43
-5.66366 0.0103963 15.3662 92 44 28
-5.70572 0.0780681 15.7051 86 37 22
-3.83554 0.17767 14.2785 144 94 77
-6.57939 0.0619605 11.6105 118 32 32
-6.56765 0.118596 11.8416 163 118 117
5.25332 0.892228 15.2628 122 98 86
-7.42859 0.0804775 11.4631 189 131 122
5.03902 1.04886 15.3987 84 55 37
-6.66557 0.279047 11.5176 152 104 107
-7.30299 0.260226 11.3405 72 28 22
-7.26747 0.260618 11.3297 178 136 129
-5.85944 0.521956 13.0904 148 66 32
5.57966 1.26019 15.3864 186 161 150
-6.59108 0.517265 12.7035 110 69 38
0.96898 1.32247 14.4799 146 108 87
-0.751738 1.33903 14.5463 137 75 64
4.14345 1.68759 15.1848 223 200 192
5.20902 1.95164 15.1809 134 98 82
4.67137 2.3325 16.5145 235 223 215
4.70115 2.29925 15.3269 132 98 88
5.64124 2.43303 15.1499 134 72 68
-6.7806 1.2919 11.9769 110 102 109
-3.91235 2.30678 16.205 72 32 20
6.25534 2.72226 15.5079 43 32 24
-6.80128 1.3544 12.1036 116 112 120
-6.85492 1.36879 12.0965 72 68 78
-1.32954 2.20104 14.3057 112 92 78
-6.67684 1.50329 12.3081 103 96 108
-1.0755 2.19241 14.0438 154 130 116
5.07994 2.80288 15.289 38 20 18
-1.26687 2.25045 14.2064 150 130 118
0.347502 2.09034 13.0112 62 42 30
-6.17471 2.32269 15.778 182 130 109
-0.819718 2.22178 13.8856 154 120 114
-4.50053 2.42753 15.6684 116 68 50
-1.34664 2.41254 14.5352 100 78 68
1.38344 2.51175 14.1828 157 98 86
-1.40772 2.40728 14.3616 149 126 114
1.57308 2.57289 14.2344 75 55 46
-1.24506 2.4463 14.2034 140 118 108
-0.341948 2.41781 13.5561 182 162 154
0.526112 2.52838 13.7335 154 138 128
-7.84725 1.603 11.8387 136 90 38
-0.393302 2.40951 13.3277 202 182 175
0.560364 2.40261 13.0681 106 92 88
-0.193528 2.40893 13.2115 70 60 58
0.44673 2.50076 13.4363 162 144 136
0.618092 2.61415 13.2173 46 32 28
0.721352 2.70355 13.3644 170 158 156
-7.2563 2.14244 12.2101 50 32 40
0.976125 3.18109 13.7757 135 41 37
-7.23662 2.47934 12.3839 120 32 16
-7.24922 2.92396 13.6032 138 94 87
-7.25794 2.85991 13.3042 160 122 107
-0.445047 3.70729 14.1894 106 77 68
-7.65584 2.91869 12.8522 145 79 42
-7.74458 3.08633 13.1037 158 88 78
4.04851 -4.55843 16.4298 129 112 68
-1.88043 -3.3771 16.0551 40 23 9
3.70466 -3.32329 16.2155 132 99 60
3.83141 -2.83047 13.5437 132 88 66
-2.06107 -3.0918 15.8777 97 62 44
3.67703 -2.94276 15.6024 84 73 50
3.68849 -2.94788 16.0499 116 108 62
3.53704 -2.84667 15.5347 128 116 86
-2.8748 -2.79732 16.1962 160 112 89
-2.45069 -2.7491 15.9057 93 38 21
-2.91035 -2.66469 16.392 56 21 6
-3.05529 -2.67738 16.6425 99 88 56
-5.18057 -2.50336 15.3074 62 26 8
-6.097 -2.38389 14.599 152 105 81
-5.254 -2.43257 14.9406 169 116 96
-6.26919 -2.35402 14.6522 119 78 56
-2.66165 -2.46209 15.7907 94 26 10
-6.25723 -2.18904 14.5372 57 23 6
4.18388 -1.95856 16.1371 167 156 108
4.73548 -1.70677 13.5256 160 134 124
-1.15376 -1.97101 16.4105 67 44 20
4.18025 -1.81277 16.3256 135 111 71
-2.46861 -1.89505 16.3155 188 132 104
-2.38039 -1.89555 16.2569 210 158 128
4.26434 -1.72126 16.4232 167 152 106
4.2424 -1.6478 16.3862 110 72 41
5.34521 -1.48808 14.6913 103 88 76
4.49636 -1.53049 16.0887 100 68 43
4.98732 -1.4711 15.3243 114 96 80
5.29016 -1.36715 15.5984 68 56 42
5.13626 -1.27996 15.5946 84 71 56
4.06294 -1.30907 16.0909 104 48 30
4.04627 -1.28998 15.781 143 93 73
3.71387 -1.26256 15.57 104 60 39
5.42104 -1.11164 14.5946 162 84 64
5.00377 -1.10761 14.708 80 23 13
-4.79434 -1.35699 16.1187 94 54 27
4.95545 -0.964983 14.3924 161 73 52
4.25054 -0.898705 15.9301 118 90 72
5.08903 -0.829111 14.8069 54 27 22
5.08745 -0.77736 14.4954 146 54 35
-1.51466 -0.904902 15.9464 178 126 106
-6.1658 -0.888603 15.2368 107 62 48
5.02539 -0.566887 14.5429 66 56 54
5.41905 -0.490159 14.636 50 38 36
-7.06313 -0.788297 11.3256 80 79 110
4.65911 -0.425948 16.63 132 122 100
4.92194 -0.417669 14.8705 46 26 15
-6.59954 -0.59726 15.5298 63 32 19
-5.92497 -0.515609 15.4843 88 42 27
-4.06427 -0.393486 14.7892 206 150 114
5.56809 -0.100867 14.6293 104 76 75
5.70965 0.0263982 17.954 70 46 20
-6.22959 -0.262834 15.5315 106 66 57
-4.24649 -0.23363 14.4473 156 102 77
5.45778 0.256743 18.0204 56 56 30
5.35287 0.186309 14.929 154 122 106
3.56534 0.29748 16.3311 142 118 100
4.16102 0.451586 17.9253 103 85 64
3.8326 0.419072 17.1223 92 73 59
3.6971 0.379516 16.5051 64 44 28
-6.08476 0.0101683 15.5755 54 18 10
4.24172 0.436739 16.7618 59 38 27
-3.90612 0.0653639 14.3801 114 62 48
5.99112 0.475788 15.4421 100 67 52
-3.84223 0.172608 14.233 146 97 80
-7.16248 -0.0376983 11.3312 174 59 62
-7.46058 0.0466476 11.4611 147 41 35
-7.44972 0.0835875 11.5366 174 103 96
5.12704 1.0729 15.5574 86 58 38
-6.67157 0.242592 11.514 162 117 122
-7.35244 0.242689 11.4348 84 44 36
-6.67021 0.274418 11.5429 155 116 119
-6.6399 0.316862 11.6819 159 134 132
-7.40346 0.283898 11.4899 178 133 124
-5.85523 0.51562 13.0337 148 66 32
-7.40241 0.301939 11.5448 172 132 121
-7.322 0.302096 11.5152 184 131 124
-7.3127 0.304233 11.3999 154 95 89
-6.65315 0.496908 12.7415 156 118 97
3.4454 1.48637 17.2287 132 98 80
-5.83368 0.859113 13.0545 130 50 30
4.0731 1.64392 15.231 180 156 147
4.98917 1.89356 14.8631 154 122 109
3.91869 2.07003 15.886 152 128 123
-7.8074 0.917356 11.8813 165 136 117
4.8769 2.36999 15.5996 126 90 78
1.62687 2.29056 14.1732 102 88 76
-1.31532 2.22249 14.3653 110 92 77
-1.24328 2.25787 14.3217 156 136 122
1.50754 2.43151 14.3065 132 108 99
1.71456 2.45052 14.3391 183 165 158
-1.32351 2.3338 14.3222 128 110 103
-0.697682 2.31661 14.0727 123 84 80
-6.88548 1.54877 12.1432 118 111 123
-1.34687 2.39862 14.5486 92 72 62
-1.40064 2.31032 13.9702 155 136 130
-7.00653 1.56998 11.9894 52 49 58
1.60399 2.61935 14.3751 78 58 50
-7.77417 1.54808 11.628 132 88 40
0.617262 2.48293 13.2809 98 86 81
-6.47669 1.93264 12.7143 65 38 48
0.652172 2.59997 13.444 88 74 70
0.553402 2.55849 13.2239 77 63 56
0.762074 2.72585 13.6299 50 36 32
0.723092 2.69836 13.3685 158 144 142
-0.712549 3.11669 14.3539 142 78 67
-6.97579 2.42388 12.5396 161 114 104
-0.282917 3.38404 14.1859 164 122 124
-7.64961 2.38087 12.4407 158 83 76
-7.11393 2.52753 12.7574 146 92 79
-0.512105 3.42064 14.0897 122 96 92
-7.11506 2.69282 12.7604 140 94 75
-0.109516 3.67564 14.132 109 82 78
-6.70689 2.97224 13.3432 144 62 36
-7.72952 3.01515 13.1231 144 68 38
-7.79954 3.14129 13.2613 157 104 93
3.93361 -4.52003 16.1593 154 139 94
3.83949 -4.42228 15.8261 100 82 42
3.72134 -3.93057 16.123 164 155 106
3.67316 -3.56277 14.9152 136 114 97
3.8831 -3.17042 14.0392 98 18 9
3.53413 -3.26441 15.2036 122 103 83
3.73509 -3.31137 16.2272 124 72 40
3.53702 -2.91249 15.3094 81 72 50
-5.85048 -2.72231 14.5164 87 58 36
3.5864 -2.73715 15.1976 102 74 46
-2.37394 -2.81004 15.7705 180 118 98
3.69287 -2.56551 14.4247 76 58 51
3.5791 -2.62401 15.1371 118 92 68
-5.36938 -2.65812 15.0526 84 56 36
-5.8561 -2.58614 14.6759 148 102 79
-2.7606 -2.72203 15.9687 83 32 20
-6.02418 -2.50339 14.5767 164 117 90
-2.91653 -2.62826 16.0806 114 70 48
-6.07767 -2.36167 14.4727 166 117 92
-6.19623 -2.3337 14.6448 68 32 15
-6.25874 -2.18944 14.5702 54 21 6
-5.68645 -2.09179 14.8068 166 112 98
4.42754 -1.81274 13.9196 80 46 28
-5.46636 -1.98887 14.6743 60 16 8
4.30034 -1.90084 16.4946 120 81 42
-1.20088 -1.88396 16.2572 106 84 63
-2.75351 -1.91477 16.6715 170 120 88
-1.23627 -1.80514 16.3132 44 18 7
4.25795 -1.68021 15.8381 128 80 58
-5.69142 -1.65213 14.8664 100 48 34
5.49646 -1.35927 15.1093 130 66 54
3.77789 -1.34089 15.595 82 14 4
4.97927 -1.32745 15.6248 90 76 56
5.00864 -1.22405 14.4019 162 85 66
4.96948 -1.11432 14.6439 82 28 18
4.9454 -1.07693 15.6208 60 49 28
3.86654 -1.02246 15.7273 108 84 70
5.2335 -0.920248 14.4612 140 48 30
-3.81317 -1.20421 17.624 62 23 6
-5.95201 -1.09156 15.5671 97 50 38
5.13761 -0.806743 14.8955 22 10 4
3.69008 -0.837988 15.6391 64 34 22
5.04066 -0.77312 14.4287 128 50 34
-1.5173 -0.919638 16.2614 150 100 82
4.59292 -0.662277 16.6229 118 82 59
4.37642 -0.575245 16.2307 30 14 4
4.7623 -0.419148 16.7986 146 136 113
4.93939 -0.416219 14.8943 46 26 15
5.92628 -0.133305 18.1538 68 54 35
-6.53175 -0.449015 15.4646 160 106 80
4.35985 0.00355236 18.1081 104 86 57
5.24747 -0.0242768 14.8999 178 154 144
4.03043 0.196309 17.5779 51 28 8
3.93571 0.210985 16.4601 136 104 83
-5.69026 -0.00606425 15.4135 71 26 10
3.73187 0.415134 16.5897 27 16 4
-5.69075 0.0455826 15.4502 74 25 12
-3.88826 0.04566 14.3071 94 44 30
4.01769 0.470103 16.9167 88 52 28
-7.51042 0.0656992 11.6083 145 40 34
-7.39957 0.0836016 11.3659 192 147 138
5.05752 1.04838 15.4265 84 55 37
-7.27846 0.196409 11.421 174 116 110
-7.39964 0.2464 11.4517 182 147 138
-7.30116 0.270114 11.4529 178 138 132
5.64543 1.27302 15.4756 185 161 150
-6.58441 0.439537 12.4311 157 124 102
3.47289 1.59989 16.2672 146 116 96
3.5419 1.6902 16.2955 115 36 21
5.28208 1.61797 15.01 88 48 27
4.13744 1.67752 15.1898 192 168 158
4.44798 1.98722 15.5184 150 114 100
-7.85794 0.935183 12.0026 164 138 120
3.55614 2.33739 16.3942 28 16 7
4.65521 2.35515 15.3454 150 126 118
4.7457 2.40369 15.1594 87 26 24
-6.6813 1.26769 12.2745 124 116 118
-2.87291 2.45209 16.7283 195 142 112
-6.86439 1.37243 12.2815 117 110 116
-6.68618 1.48947 12.2489 120 116 124
-1.20333 2.29757 14.3894 157 136 124
-0.821866 2.20857 13.8646 124 90 84
-0.796422 2.29175 13.7172 122 95 90
1.44684 2.57156 14.2804 149 129 118
-1.32864 2.5083 14.1532 115 95 88
-0.348764 2.44895 13.4783 181 161 154
-7.6789 1.6499 11.9095 138 58 32
0.487991 2.53354 13.5192 187 170 162
1.03478 2.65197 13.8995 146 110 108
-6.53711 1.96118 12.667 48 27 36
0.773847 2.74737 13.4935 168 154 153
-6.88817 2.05853 12.3867 31 20 32
-6.64124 2.30075 13.0213 146 85 58
-7.25761 2.14255 12.2184 50 32 40
-7.17224 2.1746 12.2313 45 24 36
-0.551088 3.23763 13.8288 182 134 130
-7.35006 2.52676 12.9123 70 2 2
-7.70876 2.43781 12.6262 162 89 82
-7.20668 2.45602 12.4325 144 82 48
-7.32311 3.01285 13.8989 134 92 84
0.0785685 3.5962 14.0898 62 32 31
-7.41281 2.50464 12.2153 138 34 21
-6.72414 3.02052 13.4526 152 77 42
-7.6737 2.95151 12.9391 142 62 34
3.99574 -4.50267 16.2313 95 70 30
3.85415 -3.34094 16.4845 126 80 44
3.59076 -2.77245 15.6078 88 71 39
-2.3712 -2.81967 15.8418 178 116 96
-2.45901 -2.73059 15.8312 104 48 30
-5.16445 -2.45206 14.9385 88 48 32
3.69336 -2.26119 14.1212 138 111 94
-5.66186 -2.0815 14.5702 140 89 75
-2.69019 -1.93507 16.3401 77 30 8
4.22834 -1.68779 15.9146 144 93 69
-5.6187 -1.56243 15.0056 149 90 73
-1.66837 -1.52354 16.2897 82 35 18
4.96186 -1.27561 15.2868 102 86 70
5.15892 -1.23828 14.6616 132 47 34
4.97077 -1.19708 15.0779 149 120 108
5.10546 -1.08217 14.5879 145 48 36
3.84297 -1.03158 15.7096 145 120 104
3.53994 -0.959094 15.3344 178 146 133
4.83927 -0.797785 14.1495 124 42 24
4.25024 -0.728799 16.0563 146 104 87
-1.13478 -0.771206 16.2415 90 64 42
5.34267 -0.539323 15.046 73 62 61
4.9879 -0.534179 14.8752 72 45 32
4.61 -0.518074 16.5657 19 12 6
5.24445 -0.508741 17.3585 60 71 48
-1.29767 -0.644703 16.1131 100 58 35
3.96088 -0.462715 16.0717 50 20 12
-6.81783 -0.696806 11.581 42 40 62
-2.96679 -0.407676 14.791 93 52 32
-2.00074 -0.354188 16.021 104 62 46
5.27406 -0.0733716 17.1576 110 94 69
-6.55057 -0.436044 15.5463 160 104 80
-7.29039 -0.497114 11.9195 158 140 125
4.9156 -0.0245807 15.0751 138 82 58
-6.5681 -0.266111 15.4859 94 56 33
5.20221 0.0898623 14.8386 96 61 50
3.98756 0.189201 17.5971 72 49 23
3.79437 0.158708 16.8924 154 124 102
5.1944 0.217112 14.7558 175 148 133
-6.52318 -0.21238 11.8984 116 45 32
-7.16759 -0.0213601 11.4328 182 70 74
-4.54498 0.363424 14.622 106 58 42
-7.49465 0.0474191 11.5469 146 46 38
-6.65752 0.100431 11.622 124 32 35
-7.41974 0.104919 11.4623 184 154 146
-5.97234 0.404983 13.2458 106 26 8
5.10093 1.14232 15.549 123 93 74
-7.34932 0.252302 11.4129 81 42 34
-6.6261 0.452463 12.6371 158 131 107
3.43394 1.77038 16.906 76 48 30
-5.85776 0.877307 13.254 139 54 32
4.90536 1.70307 14.9688 76 32 15
4.39894 2.03167 15.3712 120 86 72
4.78627 2.32714 15.4268 121 81 67
-0.452813 1.7146 13.4012 76 14 15
-3.94608 2.1672 15.5941 61 22 10
-6.82067 1.35135 12.124 126 120 126
-6.69723 1.45795 12.4155 24 20 38
-0.926275 2.25239 14.4314 124 64 54
5.03894 2.8637 15.6644 142 113 108
-6.8314 1.47032 12.1806 22 19 32
-0.938587 2.34856 14.7492 156 134 119
-1.24167 2.27223 14.3366 158 136 124
-6.87441 1.54023 12.1301 112 104 114
-0.841963 2.25356 13.6161 106 79 75
-1.26038 2.39784 14.258 93 70 64
-6.99385 1.57019 11.9681 52 49 58
1.40796 2.56582 14.184 150 128 117
-0.926656 2.54572 14.5686 150 123 111
-1.16621 2.56281 14.5864 150 127 117
-7.84898 1.56668 11.797 125 80 35
0.442899 2.50873 13.4392 162 144 136
0.558551 2.58475 13.1795 38 24 17
-0.534461 2.61639 13.4639 137 62 58
-0.065609 2.62338 13.3873 134 116 113
0.340715 2.74665 13.6655 136 49 48
-6.66222 2.30268 13.0586 132 54 36
-6.56474 2.27871 12.9507 125 26 23
-7.24171 2.13288 12.154 43 26 34
-0.751219 3.17963 14.2061 56 18 12
-0.675993 3.42816 14.8319 67 40 30
-7.16688 2.31993 12.2559 71 4 2
-6.92497 2.35739 12.3116 161 115 106
-6.63356 2.71649 13.419 130 68 38
-7.67679 2.41306 12.5215 170 106 98
-7.22468 2.88099 13.4891 140 100 94
-7.42201 2.50407 12.2279 139 34 20
-0.671674 3.58074 14.0629 102 70 62
4.31944 -4.39969 16.2461 123 110 76
3.47832 -3.52794 14.6097 130 108 90
3.52372 -3.46028 15.572 127 90 56
3.96513 -2.89897 13.7912 135 88 66
3.64955 -3.27884 16.0667 128 76 44
-2.62888 -3.07687 15.8586 124 82 65
-2.48091 -2.70106 15.5728 90 34 18
3.99193 -2.39463 14.023 99 28 24
-5.52816 -2.38956 14.5865 56 24 12
-5.22862 -2.3653 14.9818 80 36 25
-2.96529 -2.62127 17.2642 60 38 17
-6.19256 -2.31754 14.7558 52 22 11
-6.03519 -2.31481 14.7435 168 117 91
4.73652 -2.17825 16.6831 100 56 28
-2.14083 -1.97039 16.1326 142 92 72
-5.58479 -1.87503 14.7354 184 121 101
-2.69572 -1.95678 16.2293 89 43 22
4.185 -1.85668 16.3148 118 88 48
-6.06136 -1.82432 14.4435 122 82 64
-2.48241 -1.90373 16.0896 160 104 78
-5.70411 -1.66159 14.843 85 36 23
4.48473 -1.55 16.0852 76 42 18
-5.71832 -1.60731 15.22 101 48 36
-1.62516 -1.60009 16.2491 136 90 72
-1.66953 -1.50793 16.2351 79 34 18
5.08182 -1.26937 15.4796 100 84 69
3.53193 -1.25806 15.5136 139 102 70
3.87768 -1.24891 15.5313 162 126 106
5.11865 -1.08007 14.8879 90 37 28
-1.56478 -0.935039 16.049 129 82 65
4.41472 -0.705248 16.3613 145 100 80
3.87475 -0.62805 14.9242 54 68 42
-7.08778 -0.775779 11.3814 90 87 117
-6.72245 -0.773201 15.2367 105 78 54
-7.24787 -0.705755 11.5034 94 90 96
-6.85657 -0.549201 11.6172 160 145 128
4.07648 0.00906009 17.5736 95 74 42
5.16922 0.127829 15.0705 117 71 50
-4.11913 -0.100436 14.2605 112 59 44
4.07195 0.367185 16.6656 34 16 8
-7.5744 -0.161814 11.69 142 75 60
5.06876 0.493723 14.8687 131 106 90
-3.73472 0.233936 15.1697 140 92 82
-7.35345 0.0918088 11.2827 184 154 148
-6.66826 0.168926 11.5409 153 102 105
-7.4597 0.241678 11.6011 182 148 142
3.52957 1.36323 18.0597 114 98 72
-6.69311 0.311537 11.7196 161 132 132
-5.80966 0.830519 12.9646 134 42 26
0.926474 1.34317 14.4441 128 37 26
-0.777021 1.32826 14.3923 128 52 44
4.8565 1.81281 15.1245 158 113 100
-4.06338 1.85283 15.8408 140 94 74
-2.54778 2.04531 16.2595 179 123 103
1.72261 2.39849 14.5457 75 56 44
-6.7915 1.57509 12.6029 101 94 107
-1.39077 2.23439 14.2483 95 74 61
-6.1486 2.28993 15.6706 180 130 110
-6.71025 1.58219 12.3547 26 18 34
-0.0895672 2.11027 13.0248 92 54 42
-0.877034 2.18721 13.4272 111 85 81
-1.40021 2.3316 14.0822 114 95 88
-1.06559 2.40667 14.0107 146 122 109
-1.18846 2.52848 14.4488 150 127 117
-1.30539 2.58224 14.4156 118 98 91
0.679927 2.5571 13.5121 85 72 66
-0.388091 2.55053 13.3523 90 80 76
-6.89804 2.05491 12.4215 32 19 30
-7.22577 2.1757 12.2804 45 31 46
-0.323667 3.37639 14.1533 145 117 114
0.0172358 3.3274 13.9155 56 20 18
0.154159 3.33341 13.8997 129 87 85
-0.17321 3.44027 14.2822 68 44 48
-7.21249 2.45851 12.4575 144 80 49
-7.06901 2.72375 13.1183 80 12 11
-6.78885 3.14687 14.2358 148 96 88
0.10395 3.62836 14.2215 62 30 28
3.41891 -3.4391 15.3861 152 116 78
-1.78258 -3.18968 15.9354 44 28 16
3.47391 -2.95642 15.2289 86 78 58
3.80031 -2.51578 14.0927 112 84 74
-1.8426 -2.69959 15.6475 116 78 61
-3.07498 -2.79207 16.5581 123 115 76
-2.78651 -2.7245 16.0882 60 12 4
3.9522 -2.25923 14.3661 90 54 30
3.78492 -2.20145 13.9287 130 90 72
-6.06325 -2.32171 14.6893 166 116 86
4.41393 -2.13493 16.1456 116 72 42
-1.45016 -2.18763 16.3613 38 14 9
4.56075 -1.94144 16.1456 118 65 33
-1.71436 -1.9804 16.0369 120 72 58
5.00479 -1.5493 15.5307 82 70 50
-1.59858 -1.61893 16.1677 127 82 64
5.1857 -1.10166 16.0876 90 70 52
-7.25011 -0.705973 11.4799 130 124 117
-6.82711 -0.689276 11.5787 38 36 60
4.91327 -0.326146 17.1227 124 112 90
-1.4773 -0.41401 16.6224 88 51 36
4.74974 -0.229441 16.7308 158 149 129
-4.06957 -0.481833 14.0376 212 156 120
-1.69068 -0.292938 18.0608 86 46 32
5.12703 -0.117639 16.5388 96 76 58
5.71956 -0.01302 18.3382 80 65 32
-7.23182 -0.48686 11.6621 156 143 126
-4.61246 -0.301941 14.1327 88 47 24
3.50138 0.064965 16.1929 158 125 106
-6.50955 -0.182573 15.585 158 142 122
3.71286 0.210122 17.1397 76 55 28
-6.07593 -0.0405453 15.7241 48 16 9
5.13344 0.493372 18.6862 96 70 54
-6.51279 -0.217049 11.8019 117 31 22
-7.18816 -0.0247096 11.4575 181 69 72
-7.5145 0.038055 11.5954 146 46 39
-6.57135 0.106765 11.6132 161 144 143
3.37079 0.980275 16.6995 142 118 103
-7.27721 0.238076 11.369 186 144 140
-7.49933 0.310886 11.6013 140 61 46
-7.48439 0.37535 11.6362 144 37 34
-5.51893 0.708438 13.1581 136 22 23
0.842469 1.29861 14.2918 124 54 39
-5.85299 0.892583 13.3084 130 30 18
3.78051 1.83157 16.9197 102 26 18
-6.74715 1.30547 12.2965 33 28 40
-6.67111 1.33509 12.2857 28 22 34
-6.70716 1.43181 12.3937 22 20 38
-6.91728 1.41335 12.4074 100 94 104
-6.86998 1.48743 12.444 25 22 38
-0.924793 2.21456 14.3367 110 23 16
-6.70103 1.46251 12.2226 91 88 99
-0.975942 2.03511 13.2791 111 65 56
-1.25497 2.41111 14.9459 91 72 56
1.60687 2.5849 14.4132 80 60 51
0.63385 2.36374 13.4828 140 90 83
-6.35651 2.70326 16.4262 174 126 94
0.629592 2.496 13.3736 99 86 82
-7.20226 2.16134 12.183 31 20 35
-0.545286 3.29746 13.9747 110 78 72
-0.256634 3.57275 14.423 90 70 68
-6.64026 2.92078 13.5692 146 103 94
4.69652 -4.22964 15.9961 149 136 96
3.66569 -3.34091 16.1592 163 150 104
-2.03405 -3.15344 15.8986 78 45 28
3.37743 -2.9806 15.0476 80 74 54
-1.85075 -2.97438 16.0828 90 56 40
-1.73424 -2.80589 16.1518 68 35 22
-2.99554 -2.72506 16.279 40 20 10
-2.70192 -2.4066 15.4794 101 34 16
-1.60507 -2.15111 15.6893 36 18 12
-6.07287 -2.02403 14.3345 166 115 96
-1.23163 -2.09236 16.2432 86 58 31
-2.63874 -2.05941 16.8641 66 22 4
3.99301 -1.87715 15.9259 118 84 42
4.10054 -1.71818 16.2097 162 156 109
-1.53867 -0.705197 16.2992 28 8 4
4.41677 -0.433435 16.1819 122 113 90
4.00216 -0.325634 16.0989 138 106 92
-1.43786 -0.416211 16.9934 90 50 34
4.70942 -0.187484 15.8096 96 76 58
3.69604 0.119611 15.8955 147 116 96
-3.9709 -0.105016 14.043 189 129 106
3.7921 0.292161 17.0588 130 106 82
-6.09995 -0.0867244 15.0127 92 42 26
-6.56168 -0.00123087 11.7145 125 18 16
-6.64024 0.236994 11.5378 159 145 146
3.54169 1.37729 18.1374 115 100 74
-6.56623 0.391927 12.2905 136 86 63
-6.59553 0.543414 12.5826 74 8 4
-6.4899 0.541238 12.5011 104 48 18
0.940322 1.30571 14.5107 159 138 115
-0.336318 1.56576 16.0637 147 111 95
-3.66205 2.31353 17.1145 60 20 8
-6.72002 1.26564 12.0183 24 16 28
-4.02128 2.27227 16.1235 70 30 18
-6.90739 1.343 12.0339 31 22 36
-6.8772 1.36549 12.2094 62 54 64
-3.85275 2.55464 16.9245 108 74 64
-6.70825 1.48117 12.275 54 50 62
-1.0792 2.29926 14.6661 154 134 118
-0.978056 2.30187 14.6472 154 133 118
0.11047 2.08542 13.3461 76 60 47
4.76115 2.74474 15.2166 146 116 112
-3.92384 2.49631 15.8679 74 36 26
-0.83609 2.19097 13.6337 114 86 80
1.53924 2.50735 14.2255 84 64 54
-3.9825 2.61462 15.9505 78 41 29
1.35936 2.5875 14.1857 142 66 60
-0.24178 2.44716 13.3431 70 56 51
0.438497 2.43188 13.0992 100 84 78
0.3027 2.73259 13.4318 144 88 82
0.915798 3.14744 13.7604 152 32 26
-0.523048 3.10179 13.4225 144 69 66
-0.816265 3.39979 14.3477 116 87 80
6.41319 -1.88323 15.551 60 36 26
7.02669 -1.7382 16.3984 121 94 82
-5.58821 -1.38945 15.2579 206 149 116
-3.87188 -1.18988 17.5897 108 66 44
5.56821 -0.535336 14.7133 98 58 42
-4.01989 -0.538488 14.2785 223 168 130
-7.14472 -0.475105 11.5304 143 126 120
5.62867 0.30611 15.0545 156 114 94
-7.4433 0.0531003 11.4275 144 48 40
5.66501 1.15286 15.3151 121 100 83
-6.73922 1.54945 12.2499 28 25 37
-6.73051 1.56155 12.3553 83 81 92
-0.443997 3.39868 14.1679 146 127 123
-6.63579 2.91252 13.4645 164 118 107
-2.88238 -2.80106 16.274 134 88 69
-6.2772 -2.25701 14.6054 122 78 52
-4.99946 -2.0503 14.9181 98 36 17
-2.70687 -2.05249 16.633 97 70 34
-2.67308 -2.01343 16.8198 90 44 20
-2.76297 -1.92029 16.4859 162 114 80
-5.07702 -1.71267 15.4075 56 18 6
-6.59038 -1.47945 15.4368 110 83 61
-1.54336 -1.29136 16.0245 140 93 77
5.41561 -0.143889 14.6044 138 115 116
5.9102 -0.0054451 14.9408 92 58 46
5.56458 0.298075 14.968 158 117 94
-4.52559 0.392505 15.0218 107 61 43
-7.84172 0.809674 12.0403 153 102 84
-6.82962 1.40773 12.1513 58 52 62
-6.71005 1.53769 12.3013 114 111 119
-4.48402 2.41431 15.4541 126 79 58
-4.85351 2.53213 15.5942 58 23 12
-6.90177 2.07672 12.4007 30 20 31
-6.89353 2.11557 12.4603 22 18 31
-7.14192 2.0903 12.1596 49 29 40
-7.12858 2.10908 12.1151 70 50 60
-7.13978 2.16297 12.1425 45 20 32
-7.12663 2.52227 12.8188 160 119 99
-7.21835 2.45603 12.4669 131 65 36
0.0104102 3.6984 14.1926 84 64 64
-7.19341 3.11787 12.9023 132 52 26
-5.19504 -2.63577 15.3083 51 26 6
-6.25536 -2.26581 14.75 121 80 58
-2.11727 -1.95349 16.226 150 101 79
-4.78043 -1.38739 15.7693 96 58 29
-4.06226 -0.476782 14.3845 222 172 129
-4.7925 -0.474442 15.0267 130 88 63
-4.4477 -0.349107 14.8888 82 36 16
-6.17591 0.0636332 15.6802 114 82 66
-6.58194 0.0797046 11.743 148 90 90
-6.54874 0.123436 11.7291 164 135 132
-5.99184 0.402909 13.2949 109 30 4
-6.22864 0.490642 12.8499 161 138 106
5.00277 1.6319 14.6965 156 112 93
4.32638 2.03775 15.4007 118 82 68
-7.83599 1.50488 11.5742 157 120 84
-6.8387 2.02078 12.5584 45 24 36
-6.56371 2.17331 12.6984 82 2 5
-6.62869 2.28474 12.768 120 27 9
-7.22281 2.11615 12.0949 44 28 38
-5.3124 -2.72476 15.1795 38 22 8
-6.26087 -2.33306 14.6436 128 86 62
-5.15485 -2.14438 14.7413 116 63 45
-2.48183 -1.8824 16.4134 189 134 102
-1.67893 -1.70958 16.3438 66 22 12
-5.01135 -1.59349 15.4763 56 20 5
-6.59132 -1.07563 15.4279 59 23 10
-6.54263 -0.596333 15.2863 63 32 18
-7.15976 -0.469318 11.5524 153 135 121
-4.23914 -0.208269 14.3416 168 110 85
-4.52492 0.391238 14.8964 104 58 40
-7.48101 0.0329614 11.522 146 38 33
-6.55107 0.0739013 11.6504 148 89 90
-6.66785 0.316972 11.731 162 128 124
-5.85109 0.511511 13.0042 149 62 32
-6.53417 0.475215 12.408 128 87 62
-6.94289 1.70874 12.1227 18 14 26
-6.65242 2.29118 12.8133 126 22 15
-0.737997 3.16562 14.1865 110 58 49
-0.547501 3.40726 14.0964 110 86 77
-7.20849 3.14842 12.932 138 70 30
-6.22589 3.62953 13.4391 123 49 44
-2.03795 -3.1037 15.8985 110 70 45
-2.77441 -2.73665 16.1012 90 40 27
3.97152 -2.3901 14.0054 122 51 45
-1.68074 -1.97253 16.1745 114 66 54
-5.63268 -1.88415 14.8466 162 99 80
-4.04952 -0.464933 14.2164 224 174 133
-6.48881 -0.200636 15.4938 164 145 126
-7.29712 0.26121 11.4383 180 138 128
-7.80849 0.895757 11.9976 136 55 38
-6.52211 1.94255 12.6401 67 52 56
-6.90507 2.07431 12.4339 30 22 33
-6.67089 2.7627 13.4628 125 50 25
-1.92213 -3.40592 16.2638 52 30 16
-5.94358 -2.42462 14.6391 156 107 81
-2.40929 -1.89527 16.0666 176 120 90
-7.2046 -0.484274 11.5917 160 143 128
-3.66671 0.285156 15.4226 100 76 58
-6.643 0.293756 11.7123 159 142 142
-7.56191 0.663317 11.8331 167 136 121
4.901 1.63564 14.6346 156 110 90
-6.82952 0.992828 11.9722 67 0 0
5.20414 2.45083 15.2236 94 102 92
-6.74225 1.30037 12.3059 30 22 32
-6.89703 1.55879 12.1761 101 95 106
-6.97411 1.71308 12.1912 18 14 26
-7.51812 3.19279 12.7975 180 97 50
-6.30004 -2.50503 15.2583 126 84 62
-1.14757 -0.801864 16.265 96 66 44
-2.65332 -0.53622 15.2485 146 92 65
-6.69041 -0.412234 15.4736 143 124 100
-7.41427 0.0977119 11.4607 191 154 146
-5.91051 0.314164 13.3415 164 128 110
-5.97662 0.420821 13.2795 112 25 6
-7.67079 0.667755 12.071 162 142 122
-0.543184 1.45077 13.2771 31 6 2
-2.58602 2.38342 16.2938 192 138 104
0.786215 2.41615 13.4122 160 124 120
-7.26096 3.20478 12.9706 144 80 30
-7.40982 3.34889 13.0136 164 104 42
-6.10546 -2.54583 14.7738 137 91 62
-1.99144 -2.5645 15.9416 154 100 80
-6.6154 -1.49337 15.2438 120 115 73
-4.85199 -1.41657 15.8885 95 59 32
-7.43265 -0.864043 12.132 90 90 100
-6.8176 -0.703531 11.5654 40 38 57
-6.84912 -0.561654 11.6172 160 148 128
-7.25059 -0.508744 11.6759 160 144 128
-6.24147 -0.229942 15.3354 92 50 32
-6.55166 -0.197744 11.9955 114 32 22
-6.26695 -0.0378376 15.0945 116 78 52
-5.90343 0.341108 14.1441 160 112 92
-5.93778 0.387955 13.1733 114 24 5
4.3905 1.97376 15.3744 144 108 96
-6.8183 1.6268 12.3993 21 18 34
-6.92815 2.07339 12.6219 23 18 30
-7.44509 2.4849 12.2555 144 32 24
-6.86549 3.06056 13.283 142 77 28
3.84075 -0.970783 15.6709 154 126 114
3.64153 -0.87075 15.5838 62 33 21
4.09326 -0.446948 15.9949 52 18 6
-6.51213 0.446865 12.2792 90 48 26
-0.248094 2.57867 13.3853 84 66 60
-7.11249 3.96364 12.6597 128 40 39
-1.03713 -1.18304 16.151 139 98 73
4.36202 -1.93585 13.832 167 138 128
-5.35734 -2.14517 14.759 107 52 34
-5.34162 -2.10882 14.7807 84 30 11
-6.87321 1.54524 12.1252 104 98 108
4.12734 -2.22166 13.8593 31 6 4
-1.08606 -1.1834 16.1412 156 108 84
-4.51238 -0.362474 14.7768 78 34 14
-6.64756 1.2905 12.1272 29 20 30
-2.0895 -2.76947 15.7794 98 54 38
-5.532 0.500207 13.343 120 27 22
-5.12229 -1.2031 15.2516 158 112 92
-4.83809 -0.645934 15.1444 93 49 25
-0.499599 1.40685 13.3794 68 18 11
4.15712 -2.25124 13.7489 156 108 102
-1.41583 -1.60748 16.0423 138 89 72
-3.13099 -0.171759 14.5855 112 62 50
-2.57771 2.36554 16.2161 203 150 119
-6.81158 1.33281 12.1086 108 102 108
-6.69421 1.51463 12.3462 121 116 124
-6.49329 1.94718 12.744 68 38 47
-6.72132 -0.88091 15.2427 118 94 67
-6.79586 1.29699 12.3187 32 20 26
-6.71715 -1.24688 15.3463 142 124 100
-2.48212 -2.69531 15.8328 111 52 30
-7.13015 -0.560636 11.4676 107 92 93
0.715286 2.70751 13.3689 171 156 154
-5.50112 -2.41904 14.6312 70 36 22
-1.87675 -0.92466 5.24989 137 107 74
-7.15472 -0.0189641 11.4376 180 61 63
4.8658 2.57053 15.2284 156 83 68
-6.67536 1.61701 12.4229 114 104 110
-7.77592 0.902749 11.9113 149 88 68
-6.87948 -0.508971 11.6339 138 122 113
-6.65441 -0.520523 15.378 144 124 103
-4.82677 -1.36138 15.5948 96 58 25
-7.20547 -0.850617 11.3927 90 90 93
-6.80294 -0.840252 11.5496 56 52 60
-6.78306 -0.766797 11.5525 83 74 72
-6.81432 -0.694502 11.5775 46 41 54
-7.51914 3.34078 12.9753 178 104 42
-2.65366 -2.0331 16.6535 70 27 4
3.73 -1.45914 13.9441 126 118 76
-7.2053 -0.852015 11.3617 129 123 116
-6.80745 -0.844883 11.5539 44 40 56
-7.20856 -0.793802 11.3652 88 86 91
-0.0405049 2.38916 13.2961 137 121 116
-6.80635 -0.848802 11.5515 48 44 55
-2.41425 -2.80732 15.8751 178 115 90
-1.84174 -2.71264 15.8639 116 77 54
-2.67535 -2.08933 16.5521 67 20 1
-3.82198 -1.23972 17.6341 66 28 6
-6.62795 -0.648083 15.3411 68 36 16
-2.34582 -0.568332 4.3428 100 72 52
4.91941 2.77194 15.2294 42 22 16
-1.11352 -1.016 16.2652 71 35 18
5.22036 0.83107 15.1248 160 131 117
-6.47407 1.93516 12.7083 62 34 42
-6.23392 3.64842 13.3841 119 28 28
-3.88732 -1.20581 17.5782 117 72 47
-6.60416 -0.664964 15.4926 71 34 22
-6.92039 2.08225 12.4474 47 28 32
5.38104 0.817856 15.2528 170 144 132
-6.85213 1.50378 12.1901 21 16 28
-6.93393 3.08145 13.3497 128 56 24
-1.73277 -1.74221 16.1276 64 22 11
-4.78626 -1.36126 15.5756 94 56 25
-5.53347 0.730146 13.3675 130 30 24
-6.56107 0.223123 11.591 95 78 74
-6.65539 0.225438 11.4793 166 130 132
-6.27179 0.482494 12.9994 157 142 121
-6.51231 0.399699 12.1194 149 108 88
-5.745 -2.38238 14.6778 32 13 9
-7.16048 2.56141 13.0296 158 109 96
-2.06443 -2.77163 15.8133 44 10 2
5.89551 -0.423504 14.833 152 86 61
5.98231 -0.0544558 14.8465 120 72 48
5.862 0.130224 14.8491 174 138 118
-5.91787 -0.511828 15.4813 109 58 34
5.85368 0.21945 14.9218 179 144 126
5.74739 0.340502 15.0821 70 30 14
5.79255 0.385747 15.1333 144 109 86
6.32345 0.598682 15.4828 76 44 22
6.29575 0.621119 15.5932 60 38 20
6.37992 1.04718 15.4299 31 18 10
4.66842 1.81029 15.5959 142 101 84
-6.68327 0.320308 11.6871 160 120 122
-7.40556 0.319825 11.5156 172 125 118
3.91524 2.18829 15.8701 118 93 90
-0.20025 2.58077 13.4124 69 51 46
-3.49694 -0.938167 14.4396 49 16 2
5.28263 0.126116 14.9622 79 44 32
-4.7599 -0.481653 14.8501 128 88 63
5.89066 0.412989 15.2927 146 109 86
6.36516 0.948119 15.5366 54 33 16
-6.68331 0.242088 11.5142 134 54 60
-2.88351 2.39768 16.4778 203 152 119
-6.65294 1.45975 12.326 26 20 35
-6.69658 1.57114 12.4026 28 24 35
-6.85908 1.51822 12.1876 46 42 50
-6.88802 1.55452 12.1372 110 102 114
-6.55903 1.972 12.7007 49 26 32
-6.57189 2.26922 12.8934 114 26 10
0.053255 3.66313 14.2122 90 68 70
-7.27885 2.50005 12.5128 114 28 12
3.97799 -1.01034 15.7652 122 89 70
-2.84458 -0.858743 15.6689 144 99 72
-7.08019 -0.786291 11.3372 80 80 104
5.08673 1.65204 14.8584 146 102 81
-6.53034 0.179707 11.6613 162 136 134
-7.77953 0.903827 11.9408 131 46 25
-6.56439 1.97488 12.7354 50 27 32
0.0991508 3.63261 14.1888 62 34 32
-5.17287 -2.1707 14.8571 150 98 81
-5.90096 -0.518619 15.3761 92 44 24
3.92302 0.245309 16.1945 160 129 108
-6.18882 0.0759275 15.7433 154 128 108
-6.61943 0.301803 11.6873 155 140 141
-7.32995 0.242557 11.3779 103 58 54
-4.03747 1.88284 15.9796 140 93 72
4.90738 2.55539 15.2219 183 126 97
-2.38952 -1.90363 16.284 186 132 102
-7.11367 -0.776058 11.4236 80 82 104
-6.85728 -0.551421 11.5965 152 140 128
-6.25346 -0.0452201 14.9846 108 75 54
-6.54063 0.167938 11.66 158 138 137
-6.67649 0.168483 11.5051 132 56 61
-7.4919 0.306595 11.5957 142 70 60
-7.45357 0.340964 11.5436 143 48 46
4.63187 2.46055 15.5664 102 54 55
4.75086 2.75898 15.48 40 19 16
-6.31448 1.17438 12.637 162 122 104
-7.77483 0.898371 11.9552 134 36 24
-6.84036 1.48367 12.2078 24 21 35
-6.80672 1.99319 12.3634 26 15 29
-6.62328 2.26519 12.873 134 60 33
-0.0226467 3.70461 14.2097 76 52 49
-1.94514 -2.54226 15.9346 138 88 72
-6.17012 -2.41815 14.5095 115 74 52
-2.08521 -2.1129 15.9731 56 18 6
-1.98554 -0.372632 15.9038 94 52 38
-6.16918 0.055256 15.5672 120 89 72
-6.53002 -0.194992 11.956 118 44 34
-7.46508 0.0361212 11.4619 145 48 39
-7.31311 0.111381 11.36 177 110 106
-7.2851 0.256275 11.4084 184 139 128
-7.8382 0.824554 12.0574 132 66 50
-6.87303 1.31883 11.9907 25 16 28
-6.71315 1.45209 12.434 23 20 37
-5.25005 -2.6861 15.5645 46 27 10
5.07102 -1.26431 15.3513 128 102 92
-6.20104 -0.900542 15.2917 98 52 38
-6.07287 0.00266356 14.9477 160 134 114
-5.69644 -0.0648605 14.0134 63 22 10
-7.36718 0.107061 11.3896 185 153 146
-6.91496 1.55489 12.2031 80 73 86
-6.82007 1.50127 11.5815 20 17 33
-4.85745 -0.689944 15.1541 100 56 34
3.69507 0.215046 16.6164 80 54 42
4.29316 1.74857 15.5355 198 174 164
-3.31355 2.30803 16.7156 164 114 89
-2.91463 2.38808 16.6313 177 124 88
5.95376 -4.19676 14.4615 115 90 69
-5.68977 -1.99212 14.6643 94 46 30
3.84986 -2.52749 14.1395 96 70 62
4.1053 -0.462568 16.0267 44 12 2
-6.69645 -1.23314 15.3171 106 83 60
-6.7035 -1.18517 15.3483 120 96 76
-6.83499 -0.578067 11.5326 110 100 97
-6.05638 2.54007 15.6175 198 148 117
-1.26408 -2.29217 16.6232 137 127 91
-5.03795 -2.08532 14.9553 104 41 26
0.189774 2.08026 13.3649 54 22 11
-6.41625 2.20175 13.04 122 25 22
-5.53142 0.722261 13.3764 122 30 24
4.1714 -2.32187 13.5628 116 14 10
-5.1018 -0.526665 14.8464 124 76 57
-4.4843 2.50976 15.6979 134 89 71
0.402065 2.42628 13.4227 158 136 126
-5.71414 -2.14133 14.7986 78 32 20
0.767911 2.41315 13.4563 143 105 105
4.08117 -0.477358 16.1141 104 65 48
-6.63706 1.41425 12.3573 56 47 56
6.76826 -3.26227 21.4436 104 78 63
-5.81686 -2.54609 14.6581 131 86 64
-5.86705 -2.7279 14.6562 88 54 34
-5.86807 -2.73303 14.6625 90 56 36
3.64659 -1.21383 11.9537 137 82 54
-5.96188 0.433466 13.2291 111 18 4
-7.15245 3.92434 22.6466 156 109 86
-2.49227 -3.04784 15.9483 82 40 26
-1.84594 -2.71487 15.9079 109 70 58
5.37152 -0.28436 14.7634 50 44 49
3.95563 -2.38879 13.9437 105 35 30
7.72237 -1.91491 19.304 58 33 22
7.79998 -1.84299 19.3808 90 55 39
-1.09061 -0.957198 16.2374 166 143 124
5.39303 0.0977606 14.8107 41 19 14
5.48818 0.95083 15.2876 117 84 64
3.83728 -2.52792 14.1231 103 76 66
-4.77618 -1.38869 15.7079 95 52 23
-6.56907 0.23615 11.6521 72 32 31
-6.63954 0.287928 11.5476 166 135 138
-6.66959 1.45091 12.3743 28 22 36
4.36312 -1.82681 13.8805 95 60 38
-6.59041 0.233502 11.6758 100 70 70
-0.422143 3.76467 14.3218 112 82 74
4.18727 -1.84499 13.6124 124 100 74
-5.03514 -2.08273 14.9709 105 42 24
-4.07666 -1.17192 18.0212 89 52 25
5.43967 -0.342611 15.6937 28 18 15
-6.672 -1.04161 15.3167 160 144 127
-6.96791 -1.01381 11.4064 146 138 122
-7.86288 0.919002 12.0059 163 138 120
-6.71382 -0.885432 15.2405 126 101 76
-6.86206 -0.58371 11.683 156 140 124
6.53519 2.93089 15.8063 174 146 130
-3.66714 2.27469 16.4452 108 74 64
-7.38629 2.5214 12.2131 143 64 35
-4.53543 2.4825 15.7686 123 76 57
-4.82559 2.51419 15.6206 58 20 14
-2.85138 -2.66859 16.2101 138 82 64
4.72451 -1.87446 16.3255 102 59 22
-4.78373 -0.470905 14.9201 124 84 57
-0.0307493 3.68864 14.1592 82 56 53
-6.96318 1.46991 11.8764 98 94 100
-1.31041 -1.81438 16.3743 30 10 5
-6.74283 1.51677 12.3207 68 64 76
3.72779 0.362473 16.6531 136 111 92
-6.55142 0.0726228 11.5042 140 96 96
-5.50395 -2.41123 14.6641 78 38 22
3.72991 -0.893159 15.6629 166 134 118
5.3899 2.125 15.0915 134 100 84
3.83281 2.19094 15.8368 108 86 82
6.05803 2.81567 15.4023 138 110 96
-7.1533 2.50702 12.8804 150 98 80
4.34011 -0.912467 16.1618 78 50 36
3.96439 -0.495589 16.272 182 146 129
5.85625 0.105765 14.8826 58 24 17
-6.57312 -0.259514 15.4716 108 73 51
-2.48534 -3.05319 15.9226 62 21 8
-2.02215 -0.356385 15.9643 114 70 52
5.29089 0.733503 15.2399 68 47 34
5.43332 2.10169 15.0781 135 96 78
-4.4422 2.55555 15.9388 132 83 64
5.51539 -4.39426 14.3883 180 127 99
4.83555 -2.81528 13.0632 142 92 69
-5.16623 -2.61618 15.3312 39 20 6
-1.91471 -2.3187 15.9439 109 64 50
-6.51815 0.438584 12.232 154 120 102
-7.10771 3.95337 12.6424 128 18 18
-1.0926 -0.940031 16.357 162 141 118
-6.6122 -0.302345 12.039 136 88 70
5.1073 1.34182 15.7025 108 61 34
4.43268 1.7052 15.2055 130 82 61
6.02939 2.06971 15.185 158 130 116
-3.62063 2.33949 16.9083 78 29 13
-5.57232 -2.32804 14.5643 86 44 30
3.91833 -0.441462 16.0847 54 16 6
5.26821 0.832112 15.2617 140 117 105
5.68751 1.1583 15.4367 132 112 94
-2.57645 2.11425 16.4703 178 124 100
-6.87184 3.08857 13.6988 140 75 33
-6.27695 3.60511 13.4185 126 18 22
-2.17965 -3.6096 16.2174 144 139 92
-5.33951 -2.56209 15.0848 142 91 70
-2.66799 -2.05252 16.5078 80 40 16
-2.49982 2.09108 16.588 192 144 121
5.13605 2.37977 15.2067 139 131 120
0.507149 2.24933 13.4323 104 54 42
6.0632 -0.116725 14.8353 130 86 69
4.961 0.0743079 14.8533 61 15 2
4.13832 -2.25656 13.8203 50 13 8
-3.69409 0.147989 14.2848 138 92 79
-6.6398 0.0702245 11.7029 128 64 63
-6.54921 0.193657 11.7109 159 130 130
5.65974 0.963059 15.3703 158 118 96
-7.21765 2.39593 12.3799 55 1 2
4.95972 -4.16819 14.9359 144 128 91
4.8429 -2.1052 13.3497 140 117 108
-5.899 -2.60021 14.6107 146 100 79
3.77767 0.120933 16.3563 90 65 40
-2.32507 -3.20004 15.8975 106 74 56
4.25385 -2.35334 13.5902 126 25 26
4.77802 -2.08677 13.3622 116 89 78
-2.50031 -1.8337 16.1 153 98 67
5.66752 -0.135075 14.7641 49 24 20
-4.93591 -0.443452 14.6637 105 60 34
3.76833 0.0941111 16.2381 92 67 40
-1.23885 2.50526 14.3371 156 130 120
5.3375 -4.52035 14.4147 152 144 95
-6.16562 -0.906024 15.298 94 52 34
3.8178 -0.303602 16.1087 118 78 54
-0.28886 2.51276 13.3538 142 126 118
5.73809 -4.33633 14.5961 158 108 86
