ply
format ascii 1.0
element vertex 1314
property float x
property float y
property float z
property uchar red
property uchar green
property uchar blue
end_header
-1.36522 0.341269 3.05727 116 70 50
0.402333 0.322685 2.68581 145 127 118
1.29826 0.350893 2.8888 130 52 39
-1.74795 0.273236 2.3349 97 42 44
-0.0829222 0.303765 2.43783 110 17 14
-0.251707 0.313896 2.51299 146 74 67
1.19807 0.370393 2.95118 56 36 32
-1.78159 0.282077 2.30471 90 50 50
-0.157753 0.309215 2.43053 140 41 38
0.131373 0.316217 2.43515 133 38 34
-1.31555 0.372995 3.12023 66 28 14
0.33158 0.340977 2.64247 115 98 89
1.52387 0.38253 2.96597 154 127 117
-1.6127 0.37506 3.10809 174 122 94
-1.05292 0.379905 3.12831 113 84 74
-1.69563 0.37089 3.07074 121 85 58
0.22812 0.329905 2.4892 129 66 62
-0.0429173 0.333714 2.48181 104 24 18
0.0437265 0.324339 2.42911 66 34 26
1.2468 0.383263 2.8835 103 80 74
0.161653 0.336202 2.4706 140 30 34
1.2896 0.396007 2.92935 82 59 55
-1.77443 0.313137 2.33494 90 23 23
0.380091 0.371226 2.69392 114 94 84
-1.65608 0.396417 3.08343 122 76 50
-0.397218 0.373332 2.70864 123 100 92
-1.14291 0.418532 3.17025 124 91 81
-0.199279 0.346839 2.43959 151 44 39
-1.16722 0.412385 3.10016 126 92 80
-0.0377118 0.35739 2.43621 128 22 20
-1.84966 0.329964 2.28823 92 34 40
-0.07497 0.371487 2.4467 108 95 92
-1.79049 0.368158 2.49271 140 86 54
-0.201148 0.385237 2.46667 152 42 38
0.0145315 0.404098 2.45718 151 44 42
0.179503 0.406042 2.50052 135 38 40
0.0894272 0.41208 2.4374 74 56 50
-1.9154 0.405447 2.4477 116 31 23
-1.78473 0.414809 2.49408 145 114 78
-0.101736 0.427172 2.44982 150 104 102
0.0426433 0.438768 2.48905 142 44 42
0.067361 0.449309 2.48599 142 48 42
-1.78267 0.451586 2.53803 131 86 70
-1.92264 0.470811 2.49462 112 66 46
-1.80807 0.480888 2.50084 130 52 36
-0.153363 0.506843 2.55419 124 46 42
0.112209 0.513894 2.54586 120 42 32
-1.85716 0.484536 2.45006 142 46 20
-1.79569 0.509613 2.57004 136 80 67
0.218662 0.538835 2.58248 138 67 58
-0.156706 0.57635 2.69163 200 168 162
-0.112978 0.581755 2.70656 154 134 133
-0.0707077 0.598581 2.67812 65 32 32
-1.80787 0.564927 2.55531 116 28 9
0.0249805 0.618725 2.72153 110 72 73
-0.0933353 0.612471 2.69239 95 64 67
-0.171638 0.601387 2.64646 100 69 62
-1.83054 0.578572 2.51895 128 33 16
-0.0866359 0.63543 2.6375 78 45 41
-0.00663374 0.644813 2.67415 118 90 88
-0.114239 0.688604 2.72845 140 110 106
1.32466 -1.52126 2.58969 134 104 66
1.44069 -1.49574 2.57305 120 92 56
1.30598 -1.48219 2.56738 106 60 25
1.45233 -1.48174 2.6109 120 80 48
1.32734 -1.45674 2.55198 154 100 72
1.28988 -1.44269 2.54911 122 52 28
1.44599 -1.43323 2.54376 119 98 63
0.876044 -1.39404 2.86775 138 111 84
0.836354 -1.24248 2.65447 120 94 70
1.1236 -1.06921 2.27562 122 32 20
0.84419 -1.09978 2.41661 138 96 68
0.961253 -1.11601 2.46525 113 25 16
1.13058 -1.02973 2.21975 112 58 34
0.871346 -1.08375 2.45571 126 88 68
0.875895 -1.0536 2.49383 158 131 118
0.941247 -1.00801 2.4292 136 102 88
0.832682 -1.07029 2.67372 125 105 88
-0.686904 -1.15424 3.02094 88 52 36
-0.444793 -1.17703 3.13636 121 112 74
0.98763 -0.982468 2.41305 132 90 74
0.878725 -1.01263 2.58966 122 106 95
-1.50491 -1.05529 2.80292 121 112 66
0.845579 -1.05216 2.75806 120 93 72
-1.46843 -1.04793 2.88994 96 82 46
-0.51889 -1.06561 3.02065 50 27 14
-0.763199 -0.947566 3.00328 90 20 4
-0.550517 -0.954271 3.04568 36 10 3
-0.379027 -0.992305 3.24688 122 116 73
1.12993 -0.938132 3.11026 148 123 81
-0.5838 -0.896254 3.10236 50 18 9
1.28621 -0.880357 2.9893 122 109 75
-0.476966 -0.893942 3.10858 44 24 15
1.08082 -0.900428 3.12279 158 138 90
-1.77032 -0.811943 2.80009 80 46 28
-1.49633 -0.791976 2.75091 72 23 10
-0.364544 -0.872474 3.10939 124 119 76
-0.600547 -0.870595 3.12797 82 40 24
-0.532835 -0.861131 3.10223 63 20 14
0.736962 -1.27599 5.32106 124 124 79
-0.751394 -0.845024 3.20883 78 32 11
1.23486 -0.782477 2.9413 132 121 84
-1.67059 -0.716664 2.80228 72 37 26
-1.82754 -0.731405 2.91552 122 110 74
-1.56204 -0.702759 2.8313 82 36 22
-1.53197 -0.680605 2.85325 56 14 2
-1.40949 -0.70247 2.9766 84 45 24
-0.731576 -0.70502 3.07983 161 114 81
1.22519 -0.62696 2.6812 118 65 54
1.28175 -0.618399 2.63467 176 80 56
-1.22254 -0.732811 3.43819 130 112 70
1.27665 -0.631681 2.88119 119 96 80
0.998877 -0.634964 3.05349 120 93 76
-1.81776 -0.600949 2.94501 138 123 91
-0.500688 -0.609255 3.1141 78 38 26
1.27812 -0.538456 2.68504 67 22 12
-0.471763 -0.583694 3.12655 81 40 25
-1.93382 -0.409318 1.91714 94 95 120
-1.97666 -0.385913 1.94093 116 110 106
-0.899076 -0.478629 2.70847 137 94 72
-0.461794 -0.529998 3.12649 54 22 13
-1.08579 -0.460164 2.66058 128 84 49
-0.712156 -0.479393 2.89065 122 79 56
-0.479714 -0.502943 3.16434 65 30 22
-0.8184 -0.462528 2.84247 85 44 24
-0.973077 -0.412201 2.63974 160 111 88
-1.5987 -0.414066 2.94904 90 43 26
-0.678514 -0.417388 2.92323 142 100 82
-1.83153 -0.32926 2.05132 140 106 85
-0.416731 -0.438376 3.269 130 109 84
1.33313 -0.391497 2.82707 79 54 52
-1.94418 -0.304642 1.98665 104 16 24
-1.9074 -0.304139 1.97736 88 16 28
-1.11903 -0.327397 2.5801 86 34 14
-1.78741 -0.357998 3.00171 148 124 100
0.939923 -0.341121 3.12007 100 72 40
-0.522224 -0.321125 3.22754 160 123 107
0.936239 -0.300583 3.2126 50 32 14
1.37341 -0.265027 2.83702 133 100 80
-0.602953 -0.294495 3.23828 168 126 111
-1.94712 -0.211661 1.94249 176 56 58
-1.78523 -0.195759 2.00249 118 38 38
-1.28477 -0.220896 2.73171 100 52 32
-1.82894 -0.18461 2.02543 139 84 86
-1.17784 -0.21287 2.77218 154 104 86
-1.82312 -0.165775 1.9603 130 46 50
-1.78761 -0.160242 1.98662 82 56 54
-1.44096 -0.197 2.99968 162 115 92
1.04182 -0.163947 3.23486 101 64 44
-1.8479 -0.129162 1.9434 87 14 26
-1.8 -0.126635 2.00229 115 28 28
-1.73841 -0.121238 2.33663 154 130 99
1.17463 -0.118107 2.94258 114 94 80
-0.862118 -0.122087 3.24473 169 120 98
-0.899298 -0.0817104 3.26727 160 109 86
1.59858 -0.0431566 3.02559 186 166 152
-1.91003 -0.0486034 1.95073 96 17 36
1.2654 -0.0266069 3.03625 106 76 58
-2.05101 -0.0328468 2.1045 166 96 84
-0.40843 -0.016425 3.35677 146 100 80
-1.42709 -0.0164986 3.08481 160 112 92
-1.59821 -0.0109428 2.40214 146 88 61
-2.11802 -0.0077398 2.12464 154 104 84
-1.86561 -0.00404567 2.09753 75 2 4
0.858179 0.0479517 3.52991 105 88 65
-1.20355 0.0722527 3.06678 159 117 104
0.830543 0.0931091 3.28533 96 69 52
-1.84958 0.0510915 2.10512 94 6 7
-0.167782 0.0690229 2.36784 114 40 28
0.858015 0.115958 3.19715 102 37 26
0.849178 0.1219 3.32675 90 68 49
1.11541 0.116723 2.98559 162 128 116
-0.107263 0.0919717 2.41757 98 28 18
1.26208 0.118049 2.83548 110 66 38
-2.00609 0.0713626 1.9978 142 41 16
1.5903 0.137008 2.85357 158 123 108
-0.33565 0.159984 3.39139 132 82 60
-1.84506 0.09237 2.13643 101 88 92
-0.944106 0.16923 3.32381 126 72 52
-0.168391 0.142995 2.42366 33 10 4
-1.08542 0.187283 3.14024 122 75 54
-1.95308 0.124057 2.05717 118 9 12
1.38939 0.193428 2.83835 171 143 134
0.923861 0.211211 3.12623 82 44 44
-1.99752 0.137284 2.0388 98 10 0
-1.91027 0.155853 2.1057 82 64 67
-1.82409 0.165422 2.20625 102 98 108
-1.78983 0.17085 2.22874 82 64 67
1.24998 0.254538 2.93187 140 126 118
-0.994646 0.270042 3.30647 64 24 15
-1.05576 0.258455 3.12453 106 62 41
-1.86733 0.187777 2.16689 108 104 117
1.82749 0.291641 3.10586 91 72 56
0.869914 0.29827 3.23489 80 42 20
-1.90481 0.19027 2.11891 102 94 100
-1.91235 0.21584 2.12831 82 66 68
-1.82815 0.22904 2.2369 78 64 68
0.0785737 0.258226 2.36562 140 20 21
-2.10896 0.215032 2.07443 151 114 73
-1.70869 0.311348 3.14541 117 74 46
-0.712679 0.319183 3.19278 131 80 52
-1.88725 0.238975 2.17608 104 93 95
-1.85936 0.240999 2.21193 113 102 105
-1.88306 0.265882 2.19907 107 40 40
-0.00195958 0.307735 2.40147 72 60 46
-1.73863 0.370294 3.17691 118 82 57
-1.6932 0.369311 3.15417 152 102 80
-0.369247 0.342212 2.68985 104 80 67
-1.82913 0.291061 2.25962 100 45 48
-1.1938 0.411215 3.11081 124 84 68
-1.8712 0.312621 2.23464 72 52 55
-1.92351 0.315267 2.18695 108 39 42
1.61843 0.440277 3.00333 140 112 99
-1.86955 0.327226 2.23155 98 45 52
-1.9628 0.32742 2.16585 88 48 51
-1.91799 0.35145 2.18696 98 34 34
0.108451 0.421923 2.44767 142 124 118
-1.9649 0.371577 2.18747 88 40 45
-0.175257 0.422341 2.46532 133 50 44
-1.94442 0.423195 2.24668 136 68 27
0.14477 0.500303 2.55008 90 34 29
-2.00167 0.438823 2.21499 164 96 62
0.0324909 0.58558 2.76836 146 38 36
-1.75306 0.557041 2.56873 136 80 73
-2.00921 0.550215 2.35992 160 50 38
-2.04918 0.550615 2.36825 152 66 55
-0.22705 0.633834 2.67505 126 96 86
-1.86896 0.59533 2.46206 98 10 9
-0.168543 0.673466 2.70913 130 102 98
-0.137825 0.683111 2.72609 122 94 90
-2.02607 0.596158 2.38835 166 58 40
-2.01569 0.639888 2.41195 146 38 12
-1.96057 0.634096 2.37605 135 33 14
-1.66326 0.697108 2.53563 138 107 94
-1.77809 0.747391 2.42375 137 79 78
-1.90859 0.805117 2.34303 145 74 76
0.825788 -1.18882 2.51826 102 64 32
0.945388 -1.17027 2.56328 112 73 40
0.840758 -1.13239 2.778 106 92 72
-1.5405 -1.07782 2.87221 130 121 79
1.22943 -0.872651 2.2824 114 94 86
1.24029 -0.846854 2.38097 104 82 72
-1.44073 -0.891336 2.81623 84 36 20
-1.38536 -0.841267 2.77559 156 98 78
-0.810383 -0.903378 3.20216 154 126 86
0.683373 -1.36362 5.50983 139 138 92
-1.49917 -0.764269 2.78202 186 118 98
-1.58556 -0.747898 2.72443 44 25 19
-0.459306 -0.819572 3.07757 62 26 15
-0.513648 -0.735789 3.10619 101 54 38
-1.32467 -0.715442 3.07161 122 91 60
-1.67226 -0.67094 2.82233 76 42 28
1.2549 -0.633933 2.64243 128 26 18
-1.39358 -0.65701 2.97978 98 56 30
1.03047 -0.638696 3.00737 110 66 48
1.58864 -0.577909 2.66113 139 112 76
-1.69844 -0.610103 2.8863 83 42 29
1.06178 -0.5961 3.04437 100 80 65
1.5511 -0.532912 2.68315 146 84 52
0.922999 -0.55387 2.98027 106 75 59
-1.17135 -0.350076 2.71754 98 46 25
-1.6228 -0.339515 3.01399 52 21 12
1.37444 -0.296207 2.73172 138 88 72
1.32271 -0.352077 3.5873 78 73 42
0.952044 -0.288554 3.1552 104 77 56
1.45251 -0.255836 2.87149 88 48 26
-1.66418 -0.272227 3.08389 136 109 88
-1.98532 -0.17386 1.93513 145 54 50
-1.56818 -0.215908 3.03113 154 107 84
1.18303 -0.205604 3.38182 96 68 44
-1.93138 -0.131001 1.92151 116 18 24
1.13848 -0.13562 2.98166 99 80 70
1.32897 -0.10455 2.8891 21 12 8
-1.80804 -0.100464 2.29566 150 112 96
1.343 -0.09951 2.87751 64 49 43
-1.92635 -0.0747838 1.90502 98 18 30
-1.75681 -0.0718808 2.2521 116 61 20
1.95551 -0.0596287 3.20741 124 90 64
0.934259 0.0674468 3.11111 163 121 108
0.896886 0.111632 3.7052 106 90 66
-0.209859 0.0821243 2.39848 106 25 20
-1.4784 0.125354 3.10497 148 100 85
-1.8163 0.0950789 2.174 84 66 71
-1.8475 0.13071 2.15228 114 108 116
-1.62115 0.235889 3.09453 193 148 127
0.0806502 0.241908 2.45159 100 18 11
-1.76773 0.343878 3.17452 128 97 77
1.09773 0.377938 3.17738 198 174 167
-1.85565 0.31151 2.25928 26 16 33
-0.241646 0.59202 2.78832 108 74 67
-0.244931 0.612701 2.74962 121 90 82
-1.97053 0.534603 2.33233 154 62 36
-2.10046 0.602027 2.47172 142 81 66
-1.9543 0.63572 2.39767 132 34 14
0.810181 -1.33514 2.84175 118 96 52
0.848066 -1.29068 2.7796 142 118 92
0.862407 -1.22706 2.56696 133 108 88
0.828336 -1.23504 2.75385 102 74 40
0.816112 -1.18422 2.71147 118 96 74
1.07586 -1.04385 2.27821 126 82 52
0.927766 -1.24583 3.1444 130 106 63
-0.7877 -1.24935 3.26987 133 121 80
1.26833 -0.936968 2.30287 154 134 126
1.20735 -0.916014 2.28216 110 85 74
0.795509 -1.03009 2.75687 104 94 49
-1.73812 -0.993599 2.76243 140 131 88
-0.39555 -1.10441 3.1659 117 112 70
1.30294 -0.886039 2.31506 172 154 150
-1.78883 -0.962482 2.80508 139 129 86
-1.43492 -0.968714 2.82577 98 66 46
-0.377131 -1.05761 3.19988 145 141 95
0.950448 -0.883634 2.53404 125 86 61
1.00951 -0.855922 2.55491 130 94 66
1.41493 -0.812498 2.36965 155 132 122
0.961082 -0.849602 2.54215 148 126 87
1.12063 -0.83675 2.51583 127 87 69
1.13506 -0.8597 2.65758 146 114 94
-0.551583 -0.965892 3.16043 34 8 1
-1.83063 -0.878806 2.83368 127 116 72
-1.73048 -0.843526 2.75788 85 49 30
-1.85289 -0.866769 2.88918 139 131 80
-0.839918 -0.935914 3.17475 153 124 83
-1.73583 -0.782872 2.77421 90 52 34
-0.759152 -0.880742 3.24739 99 67 40
1.65431 -0.803559 3.02947 58 20 9
1.35424 -1.24221 5.28764 146 142 90
-1.39111 -0.791036 3.06243 125 90 58
-1.32752 -0.810676 3.33225 143 129 82
1.27793 -0.708966 2.83318 138 116 101
1.34469 -0.684028 2.69721 128 62 52
1.08308 -0.775163 3.24816 100 48 21
1.44418 -1.16192 5.44747 144 142 92
1.25227 -0.672354 2.6996 141 78 66
1.18197 -0.743774 3.16739 132 106 72
0.978879 -0.693554 2.94086 147 98 70
-0.901333 -0.789695 3.56127 129 100 62
-0.937963 -0.771969 3.61097 120 88 51
-0.384223 -0.720299 3.31505 58 26 14
-0.981708 -0.748758 3.5892 110 92 48
-1.26974 -0.684112 3.19355 130 90 63
1.57567 -1.03632 5.47292 143 141 90
1.81662 -0.683708 3.23262 132 114 92
-1.90374 -0.471852 1.94545 136 130 101
1.71542 -0.631642 2.95872 152 124 84
1.54178 -0.612747 2.85355 102 64 46
-0.397246 -0.644873 3.10386 168 117 97
-0.929679 -0.703786 3.49763 136 92 64
1.70301 -0.615484 2.99388 152 102 66
-1.04258 -0.682969 3.49624 112 94 51
-1.14326 -0.664878 3.39878 118 100 58
-1.21516 -0.603055 3.1751 102 56 31
-1.12376 -0.668036 3.64148 104 86 48
1.22866 -0.605401 3.25913 105 113 77
-0.360238 -0.5611 2.96679 123 100 76
1.18329 -0.570985 3.12946 90 95 56
1.30851 -0.57589 3.2085 134 116 86
0.942583 -0.545332 3.16183 108 76 46
-1.351 -0.498957 2.92273 115 72 49
1.17861 -0.52692 3.27153 22 10 5
1.33102 -0.708132 4.8139 117 114 74
-1.87172 -0.364555 1.95178 75 70 78
-1.60077 -0.464132 2.90418 65 22 14
-1.95419 -0.354489 1.97022 102 90 92
1.42679 -0.435181 2.72189 115 68 50
-1.32179 -0.45681 2.91911 98 53 31
1.27082 -0.512887 3.53799 137 120 94
-0.56042 -0.461102 3.19894 102 62 49
-1.95212 -0.330531 1.9812 116 104 105
-0.833514 -0.439105 3.22558 120 72 56
1.86544 -0.423239 3.17604 162 134 105
1.33547 -0.444989 3.54131 73 62 40
1.58021 -0.362833 2.78688 132 92 69
-0.674886 -0.383879 2.97538 132 86 69
1.42077 -0.348824 2.72681 115 89 84
-1.79367 -0.292243 2.09463 152 122 101
1.89846 -0.380551 3.30539 120 88 61
-1.67437 -0.361139 2.98565 116 72 54
1.5517 -0.320785 2.73548 130 103 80
1.45421 -0.39152 3.68698 128 108 86
-1.5541 -0.327445 2.91231 80 36 19
0.995509 -0.36649 3.48221 164 138 112
-0.90844 -0.292985 2.77142 100 45 28
1.39145 -0.320478 3.61941 110 91 68
-1.02437 -0.262585 2.75278 64 20 3
-1.68936 -0.271076 2.99075 149 119 96
0.869267 -0.274086 3.20233 58 38 15
-2.03395 -0.193389 1.96886 152 79 64
1.13255 -0.232582 2.85861 159 106 82
-1.56964 -0.233748 2.82652 158 124 102
1.20297 -0.25147 3.38561 86 66 38
1.20856 -0.220465 2.82429 156 109 83
1.592 -0.213489 2.78058 138 122 97
-1.48923 -0.223391 2.97489 162 113 90
0.935139 -0.230235 3.31566 62 48 34
1.11095 -0.218508 3.30225 94 62 40
-1.81993 -0.161002 2.00719 158 144 142
-1.78509 -0.156535 2.02963 122 38 34
1.25275 -0.179878 2.84734 142 112 91
-1.91343 -0.14837 1.93826 105 12 24
1.18002 -0.183336 3.23792 126 100 80
1.08932 -0.163992 2.73167 58 36 26
1.6692 -0.154331 2.90397 65 36 18
-0.789312 -0.168963 3.21889 187 140 116
-1.99015 -0.127316 1.96834 162 74 69
-1.37067 -0.164524 3.10448 143 96 74
1.93558 -0.144724 3.19794 138 106 78
1.28286 -0.138966 2.86046 136 104 84
1.89587 -0.121349 3.26241 76 48 30
-1.50989 -0.108437 2.4968 154 100 80
0.828896 -0.116382 3.35442 120 94 65
1.33501 -0.0947732 2.87241 60 44 38
1.83974 -0.0446986 3.1677 66 44 30
1.60782 -0.0302797 2.94906 127 104 82
1.89612 -0.027283 3.18294 98 64 30
-0.151723 -0.0222887 3.55236 132 112 86
1.79456 0.00247605 2.89138 137 124 99
-2.07676 -0.017056 2.10359 126 52 38
1.73709 0.0131591 3.00628 86 60 32
0.026702 0.0219105 2.60032 159 116 93
-0.0692102 0.0183646 2.50504 140 94 75
-1.46856 0.0348029 3.06525 168 120 100
-0.252889 0.0435524 2.7636 156 92 72
1.87767 0.0667509 3.06796 136 104 78
-2.14376 0.0323466 2.18259 157 107 60
1.2456 0.0638034 2.8676 112 70 50
-2.07604 0.0308822 2.09235 112 26 6
-1.71964 0.0618547 2.26515 140 74 52
-0.326437 0.107545 3.41068 160 111 88
-1.78173 0.122499 3.34495 150 100 70
-0.209422 0.115982 2.40278 98 28 22
-1.60071 0.135264 3.15356 190 142 120
-1.9602 0.158995 3.48049 139 114 90
-0.307079 0.169473 3.4146 124 77 50
-0.287891 0.165994 3.35725 124 78 49
-0.0959733 0.124961 2.43576 113 26 20
0.846808 0.180036 3.16595 81 75 61
-0.123948 0.142258 2.41196 96 25 21
-0.346695 0.192712 3.36581 102 58 30
-1.99386 0.206205 3.6077 148 122 100
-1.79424 0.222131 3.31887 140 94 68
1.66193 0.232209 2.90715 88 46 31
-0.311872 0.263323 3.34803 106 68 44
1.77234 0.286177 3.09174 118 94 84
-0.283696 0.24012 2.52672 134 66 58
-0.768339 0.295808 3.29888 183 130 102
-0.253418 0.240514 2.51474 128 34 28
-1.01972 0.287805 3.11007 96 57 42
-0.415783 0.274055 2.78113 150 122 106
-1.80878 0.30232 3.25238 128 98 71
0.249716 0.290327 2.54904 142 92 84
-0.420998 0.311826 2.73242 140 112 100
-0.25769 0.31839 2.71007 127 98 88
1.80819 0.378157 3.16042 140 114 98
1.11793 0.387515 3.11 202 178 170
1.66867 0.408714 3.03377 133 102 86
-1.7169 0.327279 2.38446 144 94 82
0.0159215 0.360161 2.46005 134 45 36
1.06814 0.484914 3.09357 190 167 160
-2.12581 0.363031 2.33158 155 92 81
-1.83445 0.381535 2.32517 136 58 25
-0.2495 0.453169 2.74255 148 70 58
0.125469 0.444939 2.48143 140 112 108
-1.94237 0.480173 2.42164 148 114 89
0.0267252 0.566578 2.70116 153 32 30
-0.0819504 0.571845 2.71378 134 36 36
-1.91451 0.51617 2.48847 104 36 30
-0.201987 0.58266 2.71006 90 58 50
-1.93908 0.517484 2.3707 132 56 28
-2.03823 0.523877 2.33166 152 99 66
-1.98597 0.605598 2.4228 144 56 28
-0.0750473 0.657724 2.60536 147 118 114
-1.57638 0.653768 2.56896 158 138 126
-2.10943 0.715303 2.5533 164 74 68
1.36836 -1.42616 2.51456 116 70 44
1.34912 -1.00064 2.25434 172 154 150
-0.514408 -1.18148 3.07815 39 21 5
-1.56121 -1.04778 2.74236 146 139 94
-0.452544 -1.05518 3.05733 28 10 0
-0.382547 -1.09706 3.22237 132 126 82
-1.42145 -0.954775 2.86067 74 53 32
-1.82696 -0.827331 2.82282 132 122 78
1.22816 -0.751437 2.95577 118 120 82
-1.41615 -0.722985 2.91973 75 34 22
1.29209 -0.664751 2.64838 126 19 16
-1.28655 -0.717801 3.11926 120 84 52
-1.41969 -0.629369 2.8649 97 48 26
1.00539 -0.584896 2.98136 144 98 76
1.59768 -0.514489 2.67441 158 130 108
0.928527 -0.503637 3.15099 88 64 35
-1.89569 -0.344939 2.0123 94 78 80
-1.92424 -0.327419 2.00442 23 21 52
-1.40831 -0.409759 2.79269 146 100 78
-0.820782 -0.413866 2.80841 110 63 42
0.921987 -0.440611 3.1012 136 102 76
-2.02632 -0.28501 1.99559 160 117 96
-0.704891 -0.361107 2.90561 128 83 58
-1.27992 -0.251322 2.65789 131 80 56
-1.80742 -0.174039 1.99564 158 142 145
-1.24327 -0.177839 2.85284 110 62 42
1.58593 -0.155234 2.88117 98 67 42
-1.85636 -0.0712236 1.96252 82 10 24
-1.90074 -0.0460872 1.96287 109 12 22
-2.02304 0.0806053 2.03888 144 49 16
1.5526 0.141455 2.83208 148 116 101
-1.03192 0.192097 3.21523 91 42 28
-2.15128 0.218622 2.29485 142 78 54
-1.72396 0.238154 2.35735 124 50 44
-0.0342794 0.379052 2.48628 131 27 24
-1.91721 0.369962 2.20248 100 16 15
-1.92178 0.415545 2.35616 128 52 36
-1.93835 0.504198 2.43215 97 19 12
-1.87017 0.547851 2.49228 124 30 17
-1.95131 0.62217 2.47493 112 24 12
1.03327 -1.25901 2.54277 150 126 100
1.36439 -1.00629 2.22192 194 170 162
1.22295 -0.980302 2.20666 140 112 103
1.20904 -0.842322 2.34981 119 92 82
0.05499 -1.31576 5.36131 134 131 82
-0.73921 -0.810113 3.19158 132 78 46
-0.671746 -0.388026 2.90757 128 82 60
-0.509744 -0.267177 3.26717 160 122 104
-1.83826 -0.134115 2.00491 122 34 39
1.63727 0.0176336 3.01028 135 110 94
-0.200076 0.0213399 2.34765 146 88 66
-1.21144 0.322775 3.06791 82 34 17
-0.987171 0.358336 3.22348 154 126 118
0.230623 0.308032 2.48755 122 70 64
0.180767 0.374017 2.46174 142 28 30
-1.98516 0.536273 2.44003 132 57 27
-0.0499399 0.655442 2.6296 122 94 93
1.19344 -1.35609 2.54315 130 86 60
1.00243 -1.23085 2.56259 124 79 54
-0.407373 -1.146 3.21284 100 94 54
0.65856 -1.03623 5.00815 118 116 72
0.879642 -0.682889 2.92206 114 90 54
-1.98569 -0.445095 1.95506 133 129 112
-0.516126 -0.554037 3.11396 87 41 29
-1.99333 -0.293532 1.94956 164 120 100
-2.03359 -0.235887 1.94533 162 128 108
-2.02205 -0.150307 2.00495 186 141 135
-1.60655 -0.147171 2.35308 128 68 38
1.60397 -0.137314 2.91734 123 98 76
-1.70974 0.0225613 2.21426 122 50 20
-1.0651 0.0517324 3.3845 116 68 52
-1.86695 0.0932935 2.0813 105 36 38
-1.11069 0.184387 2.89212 120 70 44
-2.03534 0.19086 2.10876 135 46 22
-1.78058 0.354949 2.33984 132 69 32
-1.92728 0.416662 2.26541 127 46 16
0.868462 -1.22464 2.91102 110 88 62
0.867749 -1.14035 2.95347 124 116 78
0.97674 -0.887335 2.51412 135 99 81
1.34348 -0.834946 2.29388 177 159 152
1.51346 -0.8452 2.85886 139 100 81
-1.97683 -0.426327 1.92715 140 131 119
-1.97504 -0.402172 1.92486 122 114 108
1.06209 -0.508829 3.06947 80 48 30
-1.17622 -0.467221 2.78028 94 50 25
1.72807 -0.448968 2.85206 104 84 56
1.77543 -0.444379 3.09153 147 96 71
1.10933 -0.379187 3.34785 84 50 24
1.81184 -0.365699 3.09527 162 136 112
1.41502 -0.253884 2.8339 138 93 69
1.72982 0.0435701 2.83714 138 106 81
-2.13575 0.181561 2.08867 137 87 30
1.39727 -1.64944 2.53051 153 140 92
1.4355 -1.62167 2.5168 151 134 88
1.33468 -1.52644 2.52777 128 71 38
1.45671 -1.53084 2.5389 127 104 66
-0.632926 -1.24196 3.02036 148 141 94
-0.662008 -1.21318 3.05417 58 36 20
-0.798353 -1.19023 3.11549 128 116 84
-0.672751 -1.13955 2.99493 86 51 37
-0.709356 -1.10634 3.03005 144 93 72
-1.46262 -0.934702 2.80233 135 84 66
-1.452 -0.89435 2.81832 107 59 42
-1.42927 -0.886678 2.79562 95 54 40
1.08336 -0.823265 2.44446 121 86 67
-1.57983 -0.819864 2.71281 47 21 14
1.74996 -0.868365 2.99933 156 124 102
1.44003 -0.815767 2.85231 146 122 114
1.7667 -0.83481 3.02728 86 76 52
-0.670385 -0.809549 3.12235 141 86 58
1.09641 -0.813319 3.10531 134 85 60
-1.57898 -0.70988 2.77461 45 20 16
-0.517674 -0.738929 3.10117 102 54 36
-0.487764 -0.659354 3.09315 68 24 12
-1.15374 -0.675885 3.43649 144 133 97
-1.74557 -0.616015 2.98465 94 50 34
-0.349015 -0.585834 3.14906 144 122 110
-0.335187 -0.549364 3.16242 142 126 104
1.21098 -0.537307 3.17122 100 99 62
1.32878 -0.488984 2.78332 53 46 46
0.922302 -0.447461 3.10985 124 93 68
1.26034 -0.297089 2.77843 152 112 92
-0.420652 -0.309522 3.36428 159 122 98
-0.85315 -0.179616 3.22761 167 117 94
1.58974 -0.00108115 2.94961 124 96 79
-1.47515 0.0426204 3.0813 160 114 94
0.00680602 0.0123125 2.49589 158 123 104
-1.47798 0.116016 3.11551 152 104 86
-1.08766 0.153863 3.16828 126 78 64
1.32385 0.152014 2.87918 134 96 76
1.50824 0.214974 2.87271 170 146 138
-1.22792 0.339819 3.11949 96 48 31
-1.72074 0.332126 2.39589 132 73 62
-0.0350234 0.37045 2.46446 124 46 44
0.108201 0.372843 2.4422 99 87 81
-0.0910595 0.571963 2.68292 119 40 40
-0.130511 0.569026 2.63653 114 90 88
-0.242397 0.623036 2.72129 137 107 98
-0.135346 0.614889 2.67799 99 70 67
-1.71648 0.601054 2.54026 127 45 43
-0.0746838 0.68188 2.70593 137 108 104
1.32736 -1.6263 2.55286 154 139 91
1.45304 -1.59548 2.51583 149 134 89
1.46241 -1.55684 2.52593 128 111 64
1.43439 -1.49341 2.55057 110 83 48
1.39781 -1.45563 2.53188 108 66 42
1.27788 -1.43717 2.5253 102 53 26
1.44302 -1.43131 2.52712 128 105 80
1.07291 -1.05918 2.20961 114 20 12
-0.45788 -1.04895 3.07091 34 15 6
-1.59673 -0.928343 2.69664 98 56 38
-0.915088 -0.482677 2.72944 136 93 66
0.870616 0.175342 3.22337 84 48 42
-1.47198 0.262597 3.00684 125 76 61
-0.825677 0.321995 3.2813 126 79 52
-1.20309 0.306433 3.06615 84 36 20
0.372916 0.315096 2.62644 172 154 148
1.16537 0.449857 3.37257 115 78 62
1.28451 0.431397 2.91032 142 112 104
1.19564 0.548396 3.41886 183 162 154
-0.19256 0.665333 2.70949 135 106 100
1.35215 -1.6319 2.48693 150 132 83
1.3182 -1.60267 2.58586 148 134 86
1.36743 -1.42819 2.50664 136 89 62
1.18559 -1.39956 2.49941 136 122 87
1.49199 -1.36646 2.53721 85 73 54
0.855379 -1.33316 2.82353 136 106 77
0.791073 -1.25658 2.7514 112 88 49
1.13191 -1.01306 2.23774 116 68 38
1.3514 -0.970388 2.28851 184 167 162
1.38013 -0.876423 2.29463 164 146 142
-1.72674 -0.918462 2.8187 102 64 39
1.54129 -0.820432 2.3547 152 133 124
-0.56175 -0.86245 3.10404 56 20 14
-0.752865 -0.853386 3.1844 62 20 4
1.68494 -0.82091 3.0015 48 28 20
-0.530198 -0.801907 3.13666 102 54 38
-1.27388 -0.779339 3.39979 137 124 78
1.08229 -0.720811 3.07259 111 46 32
0.879927 -0.685796 2.91927 112 84 47
-1.19879 -0.710897 3.36682 125 101 60
1.60109 -0.517361 2.67926 147 121 104
-0.867602 -0.407318 2.7039 120 76 54
1.53758 -0.424271 2.77027 172 122 98
0.887863 -0.315994 3.22813 100 82 60
-1.29625 -0.254073 2.72357 118 66 42
-1.63874 -0.144047 2.4275 134 86 50
0.926502 -0.141364 3.26126 67 36 14
-0.627022 0.0796068 3.27408 190 143 118
-1.90969 0.15553 3.48404 120 82 50
-1.47266 0.14183 3.04212 152 102 81
-1.69573 0.1736 3.15141 156 104 81
-0.0597783 0.125403 2.50279 110 26 18
-1.49629 0.184572 3.0678 150 102 84
-0.778151 0.2525 3.3224 134 80 52
1.7383 0.207522 2.90616 115 84 68
-1.73452 0.265784 3.21747 124 79 55
0.255021 0.23219 2.54158 142 102 90
1.77727 0.276076 3.01198 103 86 70
0.0659569 0.304368 2.37912 96 22 17
-1.89438 0.574 2.55786 117 34 14
-0.163833 0.756216 2.7856 174 146 144
1.94694 -1.45401 2.84059 142 126 84
1.78521 -1.44683 2.8834 132 116 80
1.72258 -1.41856 2.84275 149 136 96
0.897538 -1.42111 2.8986 109 82 54
1.96086 -1.37115 2.73084 152 144 93
0.858913 -1.37262 2.82052 136 112 84
0.855443 -1.34724 2.81786 130 102 72
1.9635 -1.31756 2.70192 127 110 64
1.92921 -1.31732 2.71191 115 86 56
1.98476 -1.28524 2.6599 132 119 74
1.90678 -1.2007 2.56729 136 105 76
1.90578 -1.15905 2.46507 138 130 79
1.47998 -1.04697 2.1863 64 46 30
1.89503 -1.12322 2.44056 135 126 75
1.07191 -1.02756 2.18921 170 127 106
1.57418 -1.04725 2.2845 28 12 4
1.48823 -1.00795 2.21343 142 106 91
1.88509 -1.08355 2.50064 121 106 70
-0.59341 -1.19438 3.08126 42 20 6
1.7393 -1.0299 2.3245 136 118 98
1.67206 -1.00991 2.26059 134 102 82
1.22338 -0.984219 2.2071 108 81 71
0.835377 -1.12172 2.83467 105 98 74
-0.803472 -1.15449 3.07692 74 57 26
1.55881 -0.97799 2.24233 148 112 94
1.8356 -1.0322 2.44947 114 106 75
1.57109 -0.950626 2.2017 136 93 68
1.67684 -0.969983 2.28105 155 128 119
1.25606 -0.957771 2.25564 146 121 113
1.6393 -0.964244 2.2847 110 68 46
1.8208 -0.985452 2.39867 130 126 82
0.833416 -1.05478 2.77561 118 102 71
1.76187 -0.969908 2.40135 100 29 24
1.5516 -0.932654 2.263 147 122 114
1.88349 -1.00718 2.57135 124 98 65
1.59159 -0.923432 2.26577 122 107 95
1.26867 -0.904219 2.24747 148 130 123
1.65585 -0.923032 2.34142 128 111 98
-1.75014 -0.980416 2.75867 150 141 98
1.79038 -0.938194 2.45389 136 70 54
1.82542 -0.936821 2.45933 107 90 46
1.55059 -0.881354 2.31209 125 118 106
1.74539 -0.90127 2.42188 118 70 62
1.41021 -0.862068 2.27914 175 156 150
1.66312 -0.873125 2.39661 137 124 112
0.952172 -0.888547 2.54811 130 92 72
1.36638 -0.861943 2.39666 133 114 110
1.42203 -0.868495 2.45026 138 121 114
1.70133 -0.866539 2.42483 130 102 84
1.82219 -0.883742 2.55503 100 82 47
1.62375 -0.830363 2.41074 120 100 82
1.09902 -0.92853 3.00415 158 142 105
-1.48169 -0.790058 2.40497 72 42 32
1.39078 -0.805561 2.34833 148 124 116
1.08929 -0.918117 3.11095 144 116 72
1.23665 -0.85811 2.82187 139 108 81
1.60457 -0.785642 2.36433 137 120 87
-0.357053 -0.865582 3.15964 114 104 58
1.09778 -0.85468 3.0269 105 41 17
1.50602 -0.793838 2.87028 104 72 61
-1.38888 -0.786107 2.99784 100 68 34
1.01853 -0.803315 3.04453 116 100 56
1.04698 -0.761441 3.14416 126 99 62
1.71124 -0.757561 3.13102 88 34 26
1.50584 -0.71391 2.89855 98 68 54
0.988746 -0.702973 3.01061 116 64 37
-0.814644 -0.681254 2.96701 132 100 60
0.919529 -0.674352 2.9287 117 82 56
1.09839 -0.695219 3.0581 114 32 26
1.46135 -0.641348 2.63745 65 38 22
1.68786 -0.669079 3.07056 86 60 60
1.10048 -0.662427 3.14674 57 20 11
0.941997 -0.630123 2.9292 90 64 49
1.45236 -0.593798 2.68322 66 34 22
1.67034 -0.596616 2.78756 145 110 74
-1.11463 -0.656056 3.56653 102 78 45
-0.915119 -0.557783 2.95344 58 18 4
1.24833 -0.619135 3.33586 88 69 32
-1.17469 -0.558375 3.13146 94 54 28
-1.14497 -0.586428 3.40088 102 66 30
-1.06548 -0.520969 2.87873 108 71 38
-1.17703 -0.519713 2.89513 116 78 47
1.13143 -0.558602 3.14144 38 48 38
1.09851 -0.547374 3.12824 52 34 23
1.34344 -0.498146 2.68411 89 76 77
1.07515 -0.511043 3.09633 76 44 26
1.13649 -0.509585 3.09801 138 144 134
1.5472 -0.46552 2.73586 161 101 66
1.22019 -0.508252 3.42716 106 104 82
-0.566676 -0.474992 3.20207 82 40 26
1.64991 -0.443988 2.7138 67 28 16
1.88066 -0.459881 3.16867 148 124 102
1.50531 -0.408533 2.7454 166 118 98
1.82177 -0.417876 3.09118 152 118 94
1.78003 -0.408739 3.18364 146 102 80
0.942871 -0.392411 3.10668 150 119 94
0.996244 -0.367035 3.09655 140 104 83
1.41654 -0.342635 2.69998 80 56 56
1.84899 -0.366617 3.17913 140 110 90
-1.55642 -0.314895 2.9232 113 72 59
1.65331 -0.324436 2.91409 88 72 52
1.0968 -0.308283 3.28754 98 74 48
-1.64396 -0.274762 3.02886 132 110 94
0.890993 -0.280672 3.33113 106 86 63
-1.0398 -0.259609 3.18715 86 40 24
-1.01873 -0.272315 3.51162 104 56 41
-1.00651 -0.240352 2.71327 90 44 26
-1.07665 -0.24829 3.17683 105 58 38
0.903061 -0.248135 3.49129 122 95 65
-1.41183 -0.208327 2.76931 142 96 74
1.48741 -0.22143 2.91513 76 46 30
-1.08672 -0.19501 3.42951 88 44 31
1.52674 -0.206016 2.9102 62 44 33
1.97694 -0.217776 3.40514 135 116 86
1.23067 -0.199996 2.85096 161 126 102
-1.59977 -0.168177 2.41933 141 100 79
1.07577 -0.178284 3.24433 92 57 34
-0.825086 -0.135024 3.08429 168 116 92
1.87088 -0.133854 3.14054 82 45 15
1.31592 -0.127548 3.17079 169 144 132
-1.60698 -0.0126723 2.42225 146 78 54
-1.64741 -0.00389279 2.6823 164 123 103
1.87494 -0.0158485 3.01635 126 111 85
-1.58665 -0.00478198 2.47546 154 106 94
-1.88778 0.0470964 3.50445 149 112 85
-0.253477 0.0410107 2.7504 176 120 102
1.07587 0.0683001 2.8903 170 116 91
-0.000675758 0.0744492 2.54248 104 44 28
0.841307 0.128353 3.47769 115 98 73
-0.0442864 0.0811299 2.50646 138 81 64
1.09304 0.122002 2.90813 142 99 84
0.0109535 0.121611 2.56594 122 23 16
-0.101884 0.114936 2.44273 78 12 10
1.40216 0.181117 2.83852 167 146 140
1.61223 0.183884 2.89478 178 127 108
1.63698 0.227547 2.85689 114 67 56
0.23011 0.232015 2.57705 144 106 96
-0.406772 0.275295 2.7022 134 95 75
-0.275968 0.274972 2.48837 122 98 90
0.0790168 0.267013 2.36394 110 24 18
1.16672 0.420955 3.37112 206 184 176
1.22728 0.439089 3.42684 192 168 162
0.293663 0.33395 2.55358 114 100 88
0.0709282 0.352267 2.45522 187 168 162
1.64728 0.42319 2.99267 132 98 88
-1.79732 0.366263 2.42506 124 54 20
-1.79097 0.361927 2.35484 122 56 17
-0.128819 0.369645 2.42408 174 156 151
0.227234 0.487175 2.6384 144 88 82
-1.88844 0.488523 2.46787 102 10 5
-0.226013 0.524481 2.50979 144 65 58
-0.051154 0.575816 2.69731 111 22 18
-0.198693 0.592415 2.69677 76 46 38
-1.93791 0.633255 2.55409 116 58 51
1.86619 -1.45183 2.93502 134 113 79
1.04276 -1.39287 2.94536 142 124 106
-0.576545 -1.25025 3.06406 138 131 86
1.72958 -1.05822 2.30398 128 91 60
-0.530642 -1.26746 3.23119 146 139 94
-0.465185 -1.21554 3.17017 138 134 84
-0.451114 -1.21076 3.22096 145 138 90
-0.442098 -1.10034 3.11274 48 27 11
-1.80937 -0.97723 2.85471 143 132 90
1.61645 -0.876907 2.36349 149 137 118
-0.557852 -0.924493 3.05531 36 11 4
1.66315 -0.794725 2.37672 132 102 68
-0.543782 -0.835732 3.09808 68 21 9
1.23258 -0.77158 2.92942 110 106 69
1.23205 -0.676789 2.6334 140 101 90
1.26038 -0.705805 3.36317 134 124 77
1.12828 -0.644065 3.09443 50 44 30
-0.926418 -0.623436 3.35681 117 71 44
1.51278 -0.531694 2.84614 68 27 11
1.11921 -0.464181 3.28423 67 50 34
1.13501 -0.406615 3.40884 109 92 66
-1.14781 -0.337074 2.63363 98 44 22
-0.797401 -0.328548 2.85382 115 63 48
-1.42891 -0.262767 2.56898 106 70 55
-0.822496 -0.264698 2.79757 108 61 41
0.93081 -0.192998 3.28328 73 52 36
1.66155 -0.15744 2.90644 96 74 54
1.93232 -0.0676949 3.16445 130 97 66
-1.04282 0.0411773 3.2965 110 60 42
1.14302 0.218335 3.09809 216 198 192
-1.28943 0.247188 3.09873 112 64 42
-1.05688 0.28291 3.2263 83 46 30
-1.34151 0.277612 3.08275 94 46 26
-1.19381 0.355334 3.19915 102 56 38
-0.408493 0.32236 2.65938 150 130 121
-1.06089 0.384853 3.0023 102 67 58
-1.81898 0.300497 2.25062 99 38 42
-0.127562 0.395956 2.40283 90 67 61
-1.80379 0.479481 2.57121 108 30 26
-0.197255 0.533922 2.51995 124 31 28
-1.9245 0.549151 2.43873 107 52 40
1.29437 -1.55909 2.53721 149 138 92
0.916226 -1.12903 2.47533 108 70 42
1.44833 -1.05104 2.18574 44 32 22
1.49733 -1.04201 2.23104 130 91 68
1.53492 -0.989623 2.25276 140 112 103
1.74854 -0.997869 2.36437 130 120 104
1.22162 -0.921221 2.21912 143 118 110
0.914413 -0.933312 2.73615 99 64 24
1.57028 -0.854038 2.31562 101 102 88
-1.82616 -0.85185 2.82397 134 124 84
1.05956 -0.787118 2.45336 108 90 52
-1.73175 -0.785108 2.73723 74 38 18
1.21755 -0.737834 2.92366 116 118 75
1.16662 -0.7044 3.17422 94 59 36
1.25991 -0.653924 2.79639 138 96 80
3.04892 -0.965712 5.08335 140 139 91
0.955513 -0.534948 3.02907 158 126 105
-1.23284 -0.454117 2.87255 108 64 42
3.08422 -0.694749 5.40945 102 99 57
-1.27063 -0.421621 2.94015 100 57 31
1.27668 -0.467399 3.44135 147 132 106
1.25469 -0.300639 2.81236 154 108 86
1.1935 -0.316051 3.40542 104 90 58
-1.03694 -0.288574 3.24328 84 40 22
1.19819 -0.27216 3.35872 91 75 46
0.941874 -0.233147 3.33182 64 44 28
1.166 -0.220428 2.92456 168 102 68
1.10653 -0.212293 3.08405 90 62 38
1.86325 -0.129126 3.2146 42 18 8
1.86532 -0.034483 3.20504 44 20 10
1.78606 -0.00167508 3.07315 88 60 30
1.84974 0.0420141 3.04899 136 108 85
-0.358586 0.0915454 3.32527 140 89 68
1.88405 0.147388 3.11551 142 128 112
-2.43736 0.35944 4.91147 136 90 66
-0.243091 0.18735 2.40159 134 79 61
-0.325045 0.235678 2.55002 115 80 61
-0.238594 0.222056 2.37648 144 78 70
-0.270359 0.233501 2.46294 141 114 106
1.6898 0.274837 2.95258 128 102 86
-0.275001 0.316516 2.53738 117 90 82
-0.0416504 0.398658 2.47934 126 28 30
1.15901 0.609085 3.29347 178 158 151
0.152696 0.494992 2.57683 129 20 20
-0.549295 -1.19062 3.00524 48 28 10
-0.614588 -1.13782 3.02108 74 40 24
1.57132 -0.586049 2.81752 98 62 42
1.61841 -0.375837 2.83627 149 124 102
-0.52113 -0.292604 3.28724 159 122 106
0.846131 0.188829 3.51585 101 81 59
-1.43529 0.356054 3.05732 116 69 44
1.34125 -1.63696 2.52358 158 142 97
1.45854 -1.57259 2.52162 142 128 84
0.79893 -1.39357 2.83295 138 124 80
0.870189 -1.33354 2.84453 146 118 95
0.838428 -1.28058 2.75148 116 92 72
0.956913 -1.39326 3.15559 135 100 50
1.33448 -1.18267 2.39262 84 49 30
0.824885 -1.26763 2.83122 128 92 62
0.824974 -1.23571 2.87957 149 114 77
1.29813 -1.08796 2.32339 93 58 32
0.86021 -1.21004 2.85711 98 74 50
-0.808182 -1.21911 3.33178 152 144 102
-1.59164 -1.08668 2.88319 118 110 66
0.924904 -1.18421 3.02535 134 120 92
0.909137 -1.01444 2.42082 130 99 83
0.840108 -1.04439 2.58796 102 86 68
-0.790161 -1.10799 3.06576 68 28 14
-0.854035 -1.12991 3.18823 146 136 100
0.85305 -1.08695 2.84152 124 108 88
0.882784 -1.10655 3.00444 138 129 84
-0.766568 -1.04825 3.03754 159 99 74
-0.874223 -1.04248 3.16906 128 119 80
-0.829169 -1.01946 3.07184 48 18 10
-1.41641 -0.97312 2.9194 128 109 68
-1.8494 -0.922484 2.91337 120 110 68
-0.857071 -0.981453 3.16593 69 52 24
0.947723 -0.884786 2.53158 115 82 61
-1.8964 -0.926579 3.13516 135 125 88
-0.841659 -0.971654 3.30774 148 142 102
-0.557546 -0.923986 3.05925 32 10 5
1.15657 -0.781723 2.35821 128 81 60
-0.761395 -0.87464 3.21038 82 40 18
-0.738353 -0.836112 3.13129 82 32 18
-0.52856 -0.811867 3.12186 78 32 19
-0.735218 -0.803464 3.14234 160 106 78
1.36167 -0.714749 2.76138 129 80 70
1.18975 -0.69153 2.71732 114 88 76
1.36111 -0.686639 2.70644 121 70 62
-0.981553 -0.751051 3.5779 134 118 82
0.925588 -0.68001 2.9387 134 84 62
1.28991 -0.634985 2.57464 133 62 43
-0.900777 -0.71736 3.43899 142 97 70
-0.933402 -0.713981 3.52335 124 80 54
-1.59205 -0.630739 2.93745 70 25 16
-1.04948 -0.720127 3.74218 144 126 96
-0.979155 -0.678118 3.51559 92 48 24
-1.77718 -0.598993 2.87951 134 88 62
0.905652 -0.598103 2.99297 79 48 32
-1.22336 -0.616182 3.2978 114 71 48
-1.87336 -0.46206 1.93533 156 148 129
-1.12932 -0.60115 3.49446 118 75 50
-0.438512 -0.558955 3.12083 152 102 82
-0.515992 -0.543875 3.12728 77 40 30
-1.85991 -0.440063 1.9613 152 141 130
-2.22026 -0.727001 5.39712 148 129 108
-1.18499 -0.549721 3.28603 117 72 50
-1.95841 -0.423495 1.87442 115 109 105
1.37661 -0.481417 2.69518 78 43 30
-0.352442 -0.507501 3.15409 137 121 102
1.32864 -0.466637 2.65982 76 65 64
-1.7898 -0.48938 2.90668 173 122 98
-1.86002 -0.397201 1.97571 110 100 96
-1.63412 -0.466162 3.11294 62 20 16
-1.31785 -0.43821 2.78721 94 49 27
1.35502 -0.414712 2.65549 112 82 76
1.17697 -0.400211 2.76787 136 87 63
1.16005 -0.406152 2.95562 70 52 36
1.4448 -0.439575 3.62308 146 134 109
1.4876 -0.438096 3.60579 148 136 116
1.16523 -0.385692 2.81902 135 78 50
-1.79945 -0.408598 2.95081 132 110 88
-1.40789 -0.400333 2.78166 134 88 70
-1.62455 -0.400099 2.96578 69 26 18
-1.4162 -0.37948 2.76669 143 97 79
-1.88694 -0.348537 2.00251 114 102 102
-1.50779 -0.381397 2.81868 154 109 90
-1.95259 -0.337505 1.98248 80 64 74
1.15551 -0.354887 2.79399 144 76 41
1.598 -0.338666 2.80023 79 54 30
-1.67697 -0.366433 3.0171 70 36 27
-0.629588 -0.364547 3.29166 130 90 70
-1.57008 -0.348409 2.95628 82 37 22
1.37552 -0.338991 3.52242 96 84 56
1.17153 -0.312765 2.87053 140 84 60
-1.88506 -0.309474 1.98758 102 18 21
-0.720603 -0.307713 2.84243 138 91 72
-1.6011 -0.318137 3.05464 66 30 23
-0.771195 -0.300135 3.01356 128 79 64
1.10157 -0.275622 2.80043 130 88 68
-1.78494 -0.280568 2.09436 160 129 110
1.25163 -0.265574 3.4653 88 72 44
1.19433 -0.238795 2.80415 148 95 73
-1.29357 -0.276638 2.73847 120 72 54
-2.06768 -0.255671 2.0335 161 127 108
-1.60852 -0.239686 3.09876 148 102 82
1.20018 -0.16337 2.8916 92 62 45
1.74777 -0.12418 3.00368 87 53 34
-1.35173 -0.169057 2.88597 134 87 70
-2.02586 -0.189573 1.94143 147 55 44
-2.00328 -0.189272 1.93362 142 35 34
-1.31064 -0.16577 2.81097 112 66 48
1.72383 -0.0781517 2.98836 62 35 20
-1.63929 -0.144873 2.43247 136 90 56
-1.95961 -0.152989 1.88955 138 32 32
-1.88581 -0.150291 1.93993 112 10 20
-1.99342 -0.148195 1.92547 143 108 100
-1.81863 -0.140626 1.95791 148 96 101
-1.50461 -0.108476 2.5123 170 111 94
1.60024 -0.0268537 2.94715 124 101 82
1.69696 -0.0243457 2.96966 72 50 28
1.69015 -0.0273949 2.88415 94 62 32
1.37024 -0.0256299 2.85717 183 160 148
-1.97742 -0.127133 1.93135 172 92 90
1.88354 0.0265222 3.19284 38 14 2
1.25552 0.0313804 2.77566 150 114 98
-0.718464 0.0263658 3.11318 156 99 78
1.20276 0.0419518 2.78285 110 72 52
-2.06849 -0.0647752 2.10946 156 98 86
-1.84908 -0.0673202 1.93673 97 18 30
0.987213 0.0781955 2.8578 169 145 138
1.51727 0.109763 2.84518 154 119 104
1.09328 0.150272 2.98551 133 103 89
-1.99824 0.00830225 2.12586 94 4 6
-0.275018 0.172573 3.42721 114 72 45
1.80542 0.222204 3.03957 101 76 64
-1.58601 0.130789 3.112 191 145 124
1.12588 0.218612 3.18808 180 156 150
-0.11841 0.212367 3.48344 150 124 110
-0.239966 0.117653 2.50318 146 41 35
-1.67896 0.128593 2.96087 157 106 84
1.15467 0.23127 3.17345 243 226 219
-2.09493 0.0293068 2.05242 154 106 62
-0.663214 0.188603 3.05738 158 104 81
-1.04197 0.202309 3.28048 85 38 25
-0.74652 0.222027 3.29606 154 102 82
-1.8181 0.0741459 2.15513 112 41 42
1.6061 0.258723 2.88705 66 42 26
-0.292685 0.263582 3.38958 111 75 53
-2.14491 0.0624466 2.03744 162 120 70
1.20425 0.280649 2.94128 122 70 55
-2.12336 0.0858819 2.02668 162 108 37
-1.87501 0.0994178 2.09818 94 65 68
1.71886 0.334283 3.01984 158 136 121
0.318301 0.261288 2.62284 158 126 114
-0.276934 0.239143 2.51816 128 54 48
-2.08752 0.11567 1.97845 170 115 48
-1.82142 0.317785 3.32901 126 94 72
1.58524 0.397999 2.95045 148 122 108
-1.04619 0.331471 3.17613 96 66 54
-0.274319 0.285226 2.553 162 127 122
-0.243589 0.277333 2.48718 128 16 12
-0.0391887 0.274107 2.38707 52 38 26
-2.00363 0.171127 2.06443 130 26 15
-1.00098 0.358349 3.16614 150 124 116
0.320777 0.341512 2.67211 137 68 58
-2.08861 0.137998 1.99289 148 95 32
-0.103711 0.304911 2.43638 108 40 38
0.107987 0.316719 2.46073 108 44 35
-0.41776 0.338413 2.72179 149 126 114
-0.0420257 0.323889 2.48549 100 20 15
-2.11623 0.183642 2.02289 148 108 66
-2.17917 0.161913 1.88933 151 52 66
-0.0368392 0.342992 2.46045 110 35 32
0.178714 0.358427 2.45668 136 32 33
-1.16306 0.414564 3.11978 131 97 88
-2.05864 0.209334 2.04354 146 80 51
-1.92603 0.232894 2.14896 103 44 49
0.014747 0.368651 2.45029 123 46 40
-2.16155 0.201394 1.94392 140 88 57
-0.0500563 0.418822 2.49105 134 64 60
0.120374 0.407024 2.3899 136 70 66
-1.84921 0.313815 2.27613 25 20 35
-1.78397 0.358686 2.32319 142 74 37
-1.50233 0.464685 2.74456 152 128 119
-0.220029 0.520352 2.73594 132 56 46
-2.11089 0.354844 2.28362 153 98 84
-2.05432 0.348321 2.22366 144 24 24
-1.85868 0.401746 2.39664 135 60 25
-0.21247 0.595107 2.87991 103 73 64
-1.85911 0.382264 2.20601 144 93 75
-1.92575 0.382105 2.17902 84 16 12
-1.78715 0.477197 2.56191 116 63 50
-2.0429 0.385977 2.21055 160 80 73
-1.80291 0.469373 2.40386 135 38 24
-1.83986 0.473969 2.40685 138 32 13
-1.79153 0.520758 2.57329 138 72 65
-1.92746 0.506901 2.51745 110 57 50
-0.0341152 0.630681 2.60477 123 96 96
-1.94254 0.508028 2.46028 104 33 16
-1.82125 0.571913 2.64819 138 54 36
-1.90882 0.490894 2.24763 120 30 17
-2.02987 0.496828 2.28715 153 92 56
-1.88076 0.57356 2.52452 108 20 14
-1.90017 0.546249 2.28383 108 22 20
-1.58014 0.637215 2.52466 158 134 126
-1.88944 0.627036 2.47314 77 2 5
-2.09792 0.701709 2.52281 160 72 68
1.38127 -1.54386 2.49134 208 162 136
1.05906 -1.27572 2.56508 128 97 69
-1.5237 -0.901638 2.72334 51 24 12
-0.702665 -0.854651 3.13323 83 28 12
-1.39293 -0.752112 2.98717 86 46 26
-1.60706 -0.653018 2.76514 63 31 20
0.856143 -0.655436 2.95003 151 138 97
-1.44112 -0.63477 2.93055 124 78 55
-1.96077 -0.457953 1.945 140 133 118
-1.65035 -0.518555 2.9307 75 32 23
0.935264 -0.26448 3.21041 72 52 32
1.45473 -0.221409 2.84922 84 53 38
1.60482 -0.160309 2.92001 110 82 60
-1.58539 -0.175666 2.42615 167 126 106
-1.60494 -0.169138 2.41377 160 114 95
-1.98607 -0.181218 1.92359 150 54 50
-1.49807 -0.130574 3.08865 192 147 124
-1.65191 -0.127305 2.38126 144 108 63
-2.04531 -0.141191 2.01521 150 87 74
-1.87186 -0.05026 1.92724 102 16 28
-1.5759 -0.00436806 2.48584 164 88 74
1.12186 0.19055 2.98255 136 102 88
-2.12232 0.0413641 2.03849 160 123 80
-1.82192 0.0836306 2.1557 87 64 66
-0.831074 0.227636 3.16286 146 92 61
-1.80338 0.103662 2.17723 97 83 89
-2.20718 0.0923444 1.97021 141 94 44
-0.412116 0.283134 2.68971 108 86 72
1.30942 0.45622 2.97731 126 92 79
-1.7036 0.378344 3.10337 115 74 51
-1.12724 0.407291 3.0968 128 95 86
-1.70839 0.437544 3.36646 134 90 64
-0.083843 0.374858 2.43968 144 133 129
-2.19445 0.238791 1.93997 154 102 91
-1.83398 0.320458 2.25586 102 38 45
-2.21198 0.248217 1.93566 154 108 98
-1.85784 0.336682 2.28618 100 46 46
-1.91252 0.615481 2.49892 76 5 7
-1.93535 0.619213 2.43049 116 16 8
-1.8379 0.701936 2.45627 96 8 12
-0.822484 -0.91001 3.18988 140 114 78
-0.292581 -0.677316 3.13088 105 100 60
1.5686 0.0952176 2.8525 156 122 108
-1.28957 0.25191 3.11641 108 57 36
-1.88527 0.122361 2.11803 92 86 89
-1.769 0.243217 2.33287 112 24 26
-1.85097 0.284019 2.22579 70 41 48
-1.36114 -0.772179 2.92755 113 85 47
-0.35435 -0.374638 3.48697 145 126 100
-1.85245 0.570516 2.48406 120 21 7
1.29754 -1.48157 2.6043 134 108 68
1.23042 -1.45298 2.79638 103 87 52
-1.8112 -0.973241 2.86112 138 128 86
-0.434721 -0.880317 3.13457 88 49 32
-0.318804 -0.322121 3.53822 149 134 108
-1.22961 -0.184143 2.87024 119 76 59
1.15084 0.30637 3.00018 150 117 110
1.19625 0.330943 2.93272 105 46 46
-2.09784 0.104577 1.99568 176 122 57
-1.77204 0.177742 2.23714 120 23 24
-1.86688 0.232812 2.13723 111 102 107
-0.199632 0.400001 2.46312 144 40 36
-1.5204 0.508618 2.8861 152 130 119
-0.0392605 0.670059 2.68767 134 106 103
-0.758433 -2.60883 4.92061 148 143 92
1.35618 -1.56075 2.52557 205 160 136
1.14188 -1.04428 2.2372 108 49 28
1.24307 -1.50774 5.36848 138 135 87
-1.56335 -0.963471 2.73151 88 56 44
1.20561 -0.747112 2.90233 74 72 45
-1.68442 -0.760354 2.75699 104 66 50
1.29335 -0.554387 2.82236 89 63 50
-1.56264 -0.57094 2.91909 121 64 41
1.00416 -0.429249 3.19415 122 87 64
1.53183 -0.383358 2.74836 156 118 98
-0.817583 -0.447639 2.79282 94 52 31
-1.23376 -0.392276 2.74827 92 51 26
-1.03707 -0.379578 2.68711 146 100 78
1.15296 -0.260129 2.78971 154 85 52
-1.97183 -0.374856 1.94649 110 105 102
0.855809 0.187492 3.55849 93 72 48
-0.382873 0.3725 2.67978 144 118 108
-1.49504 -2.94364 4.85796 140 134 82
0.943491 0.0529041 3.12582 167 128 115
-1.36979 0.117912 3.11445 132 84 67
1.13947 0.303882 2.97212 141 99 94
1.29937 -1.57936 2.55601 154 143 98
0.719596 -1.32749 5.31378 127 126 80
-0.694925 -1.27167 3.15122 127 119 78
-1.51798 -0.147704 2.44933 162 112 96
-3.64102 -2.88707 5.80574 144 136 85
-1.38013 -0.748343 2.92934 86 45 22
-1.9696 -0.213091 1.95917 167 50 51
-0.648424 0.293412 3.20132 166 114 90
-0.0987149 0.663981 2.62467 142 114 110
1.44287 -1.64076 2.54 154 141 92
1.25607 -0.633429 2.63995 134 27 17
-1.97526 -0.413123 1.92272 136 126 112
-1.76974 -0.350821 2.99427 132 102 80
-1.79126 -0.155951 1.9633 155 139 138
-1.9285 -0.142949 1.94065 117 15 26
-2.00985 0.00628361 2.13921 103 3 2
-1.71899 0.0321211 2.24206 130 63 30
-0.653017 0.345254 3.34041 125 74 48
1.12871 -1.02315 2.23241 122 76 46
-1.86329 -0.415857 1.98045 110 100 88
-1.83676 -0.799262 2.85707 136 128 85
0.931382 -0.372384 3.08677 144 115 86
-2.17747 0.211218 1.97402 140 88 56
0.0153912 0.387801 2.47721 144 60 52
1.06064 -1.39995 2.97895 142 122 104
1.29158 -0.844353 2.34472 163 145 138
-0.374017 -1.04005 3.23296 146 142 96
-0.373161 -1.02514 3.25864 147 143 98
-0.804335 -0.811419 3.21546 118 87 46
1.03321 -0.747294 3.21446 120 74 41
-1.03738 -0.509901 2.72342 108 70 34
1.0581 -0.501552 3.15529 72 40 28
1.09374 -0.501949 3.18926 80 44 24
1.22201 -0.401842 3.07796 136 112 92
1.28653 -0.432303 3.7431 125 100 77
1.61021 0.427999 2.97547 133 101 86
1.65567 0.458719 3.09854 138 106 94
-1.91628 0.416225 2.46158 114 34 24
1.83936 -1.46672 2.94569 139 123 82
1.95956 -1.3269 2.74962 112 84 50
1.97398 -1.26085 2.66742 98 66 30
0.932557 -1.14542 2.54954 108 72 40
1.80806 -1.09234 2.35468 114 83 54
1.70358 -1.08208 2.33335 126 95 70
1.70074 -1.07966 2.39057 116 76 46
0.858539 -1.17751 2.90622 114 98 78
1.62393 -1.02559 2.2783 99 60 40
1.64208 -0.998061 2.25081 152 105 80
1.72719 -0.987519 2.33313 124 110 95
-0.481521 -1.16723 3.15849 42 25 6
-0.434403 -1.18462 3.24508 94 87 44
1.79165 -0.97207 2.43001 114 84 57
1.21562 -0.909978 2.18029 156 129 118
1.33702 -0.924779 2.28276 186 168 164
-0.860667 -1.0655 3.19603 126 106 70
1.33118 -0.89838 2.34283 101 84 80
0.839951 -0.947731 2.63032 112 91 52
1.65166 -0.886338 2.35177 130 119 109
1.55539 -0.842046 2.26626 100 100 87
1.66796 -0.830562 2.38922 140 108 86
-0.842329 -0.934251 3.08791 158 124 79
0.991162 -0.87738 2.69326 151 134 91
1.67642 -0.816719 2.32644 106 75 49
1.62565 -0.85127 3.16636 95 64 46
-1.82723 -0.767485 2.8602 123 110 75
1.07732 -0.818997 3.14342 153 105 72
1.07275 -0.757439 3.02368 74 24 10
1.59353 -0.765399 3.03719 66 36 28
1.17776 -0.714366 3.2286 93 64 37
1.23962 -0.619475 2.72693 132 80 62
1.58759 -0.616195 2.68285 128 99 90
1.81289 -0.686495 3.27418 106 86 69
-1.06551 -0.573197 2.83328 110 64 42
1.21368 -0.655377 3.34123 82 74 46
1.57208 -0.5898 2.77935 50 18 9
1.58869 -0.5959 2.89964 56 26 20
-0.490186 -0.581815 3.07501 53 14 7
1.42164 -0.539868 2.57577 80 44 30
1.67516 -0.549551 2.7479 136 109 79
-1.75968 -0.504806 2.96741 146 92 64
-1.17102 -0.49097 2.80284 91 52 21
-1.63568 -0.467233 2.99356 63 24 15
1.00871 -0.492029 2.96908 78 42 26
1.14271 -0.498546 3.26046 86 72 56
-1.17942 -0.406907 2.65542 86 44 22
1.02808 -0.466515 3.0695 106 70 50
-1.79534 -0.300333 2.09617 148 109 90
-0.639385 -0.363083 3.09396 112 66 46
1.60106 -0.371773 2.81053 119 94 72
1.13913 -0.359119 2.88862 119 85 47
1.20248 -0.327012 3.47383 109 94 60
-1.52838 -0.251179 2.89737 66 29 10
1.20425 -0.281721 3.3958 86 70 38
1.48504 -0.266622 2.78457 130 96 74
1.65209 -0.263924 2.9582 130 107 88
-1.69259 -0.148192 1.8769 118 38 36
1.89029 -0.194362 3.37772 46 20 7
-1.83438 -0.110593 2.31527 131 97 80
0.837826 -0.169574 3.31658 135 102 77
1.93742 -0.19256 3.24928 133 114 87
1.84004 -0.15923 3.19163 37 16 4
-1.49499 -0.0827028 2.45979 159 129 108
1.17134 -0.135941 2.90993 156 130 117
1.86988 -0.135372 3.21921 37 16 9
1.27162 -0.114093 3.09729 154 128 119
0.96358 -0.0779622 3.00421 100 67 44
1.83523 -0.00687063 3.2074 76 48 18
1.86011 0.0350216 3.04858 111 80 51
0.84047 0.0919255 3.36819 118 101 74
0.854165 0.156692 3.45863 116 97 74
