ply
format ascii 1.0
element vertex 977
property float x
property float y
property float z
property uchar red
property uchar green
property uchar blue
end_header
-7.82868 -1.64186 4.09129 0 255 0
-7.89786 -0.770041 3.64814 0 255 0
-6.91785 -0.681187 2.8129 0 255 0
-6.08369 -0.611134 2.09372 0 255 0
-4.91108 -0.523003 1.37514 0 255 0
-3.6285 -0.338418 0.734128 0 255 0
-2.39035 -0.243165 0.31152 0 255 0
-1.23644 -0.300787 0.191395 0 255 0
0.175991 -0.238752 0.236549 0 255 0
0.622006 -0.26552 0.257982 0 255 0
0.0812629 0.604422 0.340813 0 255 0
-0.896389 0.794157 0.724961 0 255 0
-2.35393 0.562428 0.946432 0 255 0
-3.78581 0.41677 0.9964 0 255 0
-5.75656 0.455856 1.36588 0 255 0
2.89616 -4.77 13.8336 154 156 114
-1.03276 -5.77334 18.0844 167 168 112
-2.5039 -6.20525 21.9544 214 212 164
-1.11284 -4.61888 16.4575 162 160 129
-0.910216 -4.44409 16.5804 152 149 112
-0.59341 -4.36069 16.2522 162 166 124
1.95319 -4.14562 15.4603 140 141 100
3.55928 -3.10237 10.9677 136 134 98
-0.993189 -4.12539 16.1712 169 167 128
-3.56041 -3.81886 14.6928 176 174 131
-0.801205 -4.03885 15.9257 138 144 109
-0.793943 -3.65788 15.5589 142 148 114
-2.4498 -2.97344 12.0486 172 176 128
-2.40935 -2.93406 12.0003 190 197 152
-0.878005 -3.48341 15.7572 180 182 134
-2.39909 -2.77563 11.9117 181 188 147
-2.88971 -3.25383 14.709 147 146 116
-0.830221 -3.20802 15.5827 170 174 128
-0.18246 -3.14408 15.335 190 194 154
-0.512919 -2.95998 15.2536 150 160 117
-1.46928 -2.64567 13.3232 143 150 106
0.532632 -2.60214 13.9546 163 167 126
-0.814353 -2.84 15.2594 180 181 136
-0.384961 -2.75885 14.5747 188 192 153
0.349187 -2.48522 13.5091 165 168 121
-0.621968 -2.60852 14.8742 152 164 122
-1.79774 -2.30871 12.4914 192 196 156
-0.637444 -2.47904 14.8882 148 159 118
-0.890922 -2.47592 14.8364 160 161 118
-1.8454 -2.23733 12.5677 163 164 120
-0.577455 -2.31332 14.6116 169 176 140
-0.466706 -2.23955 14.244 189 194 146
-0.520482 -2.23289 14.6172 160 166 126
0.58784 -2.15835 15.9057 164 164 110
0.445543 -1.99544 15.302 144 146 102
-0.256863 -1.65167 14.2867 175 176 127
-0.0790968 -1.67369 13.9401 180 179 137
1.12766 -1.57262 14.4367 122 130 92
-1.1652 -1.7301 13.8519 136 138 94
-0.04371 -1.62714 14.3815 174 180 135
0.222668 -1.38749 14.591 212 216 169
1.04985 -1.33271 14.3794 132 138 104
-0.926099 -1.54513 14.7601 162 164 124
-0.883314 -1.38644 13.3359 175 176 130
-2.59506 -1.62549 16.4915 146 146 102
2.93483 -0.880789 13.765 124 130 89
-0.620189 -1.27578 14.7145 152 158 116
-0.606165 -1.17539 13.6031 156 156 108
3.06338 -0.694101 13.6236 150 146 110
-0.549879 -1.06301 14.3774 180 182 137
-0.516232 -0.917817 13.5707 150 148 96
2.73384 -0.516705 14.2355 116 109 75
3.02596 -0.446553 13.1629 222 214 178
2.6095 -0.451828 13.2276 145 130 98
-0.481676 -0.83638 12.4971 140 142 116
-0.276868 -0.802509 13.4842 128 130 88
-0.721707 -0.842652 14.2826 124 124 82
-1.02927 -0.873008 14.234 106 112 81
2.32732 -0.344801 12.8605 153 133 100
-0.754485 -0.796946 16.7863 148 151 110
2.79477 -0.318297 13.0058 214 194 168
-1.01065 -0.800147 13.4567 154 153 106
-0.177167 -0.661378 13.5115 156 160 127
2.23552 -0.28127 14.2767 147 144 104
2.7848 -0.179074 12.9011 215 200 172
-1.23729 -0.703165 13.1397 158 156 111
-1.07484 -0.625136 12.7621 165 168 120
-0.200571 -0.483734 13.2662 115 121 102
-1.00765 -0.572004 15.5439 164 158 129
1.92257 -0.0412643 13.952 66 68 39
2.06573 -0.00303111 12.6808 192 176 146
-1.50121 -0.112031 12.1913 132 144 102
1.8414 0.88612 13.0109 205 168 150
0.835559 0.783176 13.2676 116 104 87
0.751751 0.823437 12.7831 117 108 92
-0.113437 1.00089 15.5125 31 24 16
1.10408 1.01515 12.7895 148 140 118
-2.06371 0.304073 11.8091 160 158 129
1.82281 1.28135 12.9077 214 184 172
-2.29331 0.582259 14.0941 136 106 90
0.561072 1.00502 12.466 90 92 69
0.242161 1.03386 13.1506 54 51 39
-1.91671 0.736092 14.4255 116 94 90
0.515316 1.02747 12.3019 86 90 64
-2.01123 0.435251 11.6138 130 138 100
-2.19025 0.725806 14.459 167 130 108
-2.1155 0.773524 14.3265 164 136 124
-1.86078 0.890634 14.3658 134 101 84
-0.58371 0.954089 12.3115 86 66 60
-2.12282 0.923454 14.4351 143 102 80
-2.14357 0.568912 11.4738 125 132 98
0.609746 1.24079 11.9338 94 96 70
-2.1545 1.04088 14.9539 156 109 82
-0.882064 1.08406 12.4049 110 73 65
-2.2965 1.02216 14.5384 160 116 90
0.311926 1.33191 12.5074 101 78 60
0.716941 1.2899 11.5008 134 132 104
-4.2073 0.244632 11.8745 116 126 109
-1.86572 1.38822 16.0425 195 176 152
-2.05516 1.11748 14.486 155 112 92
-4.37733 0.284793 12.1945 162 158 132
-1.71333 1.06256 13.2688 128 92 74
0.659981 1.39676 11.6209 78 84 53
-2.01643 1.12314 14.0029 163 123 97
-0.613235 1.249 12.4717 78 40 27
-1.93869 1.14964 13.7738 170 128 105
-1.65465 1.60843 16.3322 190 168 145
-2.08104 1.25385 14.5558 146 106 92
-0.606279 1.30291 12.7068 162 134 124
-1.85215 1.48207 15.5169 127 84 64
0.739825 1.45528 11.256 130 128 101
-4.51365 0.345887 12.084 150 146 116
-1.91245 1.35921 14.6361 107 70 53
-1.752 1.22258 13.3795 150 110 84
-1.52509 1.74777 16.3913 126 90 71
-1.85456 1.24735 13.6257 164 114 88
-1.6492 1.75997 16.4559 198 182 158
0.747179 1.75729 12.7333 118 81 80
0.6133 1.50897 11.3718 96 100 72
-2.08476 1.38621 14.6308 109 74 59
-1.93586 1.32067 13.7976 154 112 96
-1.76691 1.67065 15.7088 110 67 46
1.32442 2.00376 13.0357 223 206 198
-4.53743 0.423458 11.7891 152 155 141
-1.51097 1.48223 13.5883 168 146 142
1.23386 2.12325 13.2111 130 98 95
0.270261 1.551 11.2137 141 138 120
-1.6236 1.95398 16.2844 172 132 109
-1.7473 1.51503 13.8317 110 65 50
-1.65143 1.99775 16.4631 177 150 123
-1.3394 1.51027 13.1356 107 57 44
-2.34274 0.917562 11.1423 130 138 114
0.566053 1.65749 11.1342 102 101 80
-0.519955 1.75646 12.8922 78 49 45
-1.58112 1.63412 13.5148 127 93 89
-1.75311 2.0625 16.0727 168 140 120
-1.3081 1.65799 13.1931 194 154 149
-1.61496 2.08557 15.8105 111 64 44
0.512673 1.79197 11.1608 138 134 120
1.22044 2.38541 13.3479 112 78 74
-1.41078 1.79486 13.7479 108 76 70
-1.54311 2.12007 15.5527 126 90 65
0.795692 1.87325 10.8358 152 147 122
-1.64683 2.26338 16.2309 156 140 118
-1.47928 2.33863 16.2961 174 146 131
0.396325 2.19371 12.9804 92 62 58
-1.51234 2.01057 14.3524 96 56 43
-1.48322 2.35255 15.7929 124 82 59
1.3794 2.66685 13.5311 203 184 176
-1.65505 2.1839 15.0029 130 91 77
-2.40872 1.19065 10.8427 157 160 143
1.14042 2.67543 13.4701 134 101 99
-1.4838 2.51391 16.0888 107 62 41
-1.5046 2.03547 13.6165 106 78 75
-1.53229 2.40944 15.5101 118 75 54
-1.57118 2.11568 14.1413 158 117 104
-4.83356 0.769683 11.7012 154 153 136
-1.48454 2.69726 16.4 188 166 144
-1.46712 2.2577 14.2518 126 84 70
1.1495 2.81912 13.5631 135 100 98
-1.46792 2.3832 14.9575 82 46 30
0.0920816 2.46322 13.1016 128 88 84
-1.45713 2.34766 14.5127 102 58 45
1.42603 2.96156 13.6606 166 152 146
0.697724 2.11168 10.5749 169 154 125
-1.29472 2.29847 13.9499 142 117 115
-1.2718 2.96493 16.5593 154 128 106
-1.18807 2.48152 14.0763 72 42 34
-1.41501 2.60668 14.7897 92 46 32
-1.28911 2.60518 14.4512 96 50 38
-1.37522 2.92544 15.7089 106 56 36
-1.36183 2.88593 15.3972 111 72 62
-1.09942 2.72169 14.2648 121 78 69
1.13222 3.29232 13.8753 122 78 75
-1.33712 3.0098 15.4644 110 72 60
0.750452 2.49439 10.5941 206 182 159
-1.13956 3.46537 16.6104 150 123 104
-1.10329 3.01815 14.7596 91 44 30
0.891112 2.72934 11.162 210 201 196
-1.1115 3.59277 16.642 156 130 114
0.827518 2.81067 11.1051 140 108 92
-1.03907 3.55993 16.1853 88 44 24
-1.09127 3.14207 14.5384 130 76 64
0.888594 2.85661 11.0446 133 104 87
0.867143 3.64316 14.0371 140 94 94
-1.03585 3.86279 16.515 134 103 92
-0.857715 3.76975 15.6447 92 41 29
-1.06458 3.58689 14.9623 92 42 30
-0.714763 4.18745 16.5394 132 87 71
-0.681208 4.25763 16.0398 123 76 63
0.894668 4.49544 14.5815 155 136 136
-5.56217 1.6452 11.4118 169 162 152
-4.59465 -4.75307 15.0312 115 115 73
-0.641341 -4.61202 16.5086 136 138 100
-3.68199 -3.6758 14.9008 121 120 83
2.75224 -0.471428 13.573 109 106 72
-2.20525 -1.12291 15.9514 126 114 88
0.546653 -0.502158 18.6467 117 114 78
-0.129555 -0.30846 16.5976 88 64 42
1.84036 -0.00351046 14.5091 58 50 23
2.03359 0.0925413 13.7626 136 128 96
1.92477 0.804769 12.9164 182 140 126
0.580643 0.848897 13.0984 69 70 48
1.11795 0.980594 12.5809 167 140 127
0.524266 0.934454 12.6229 77 78 56
1.4191 1.13575 12.7419 118 97 82
1.62445 1.36079 12.7827 141 128 100
-0.718014 0.829993 12.5518 72 53 38
0.463907 1.14736 12.523 55 55 32
1.99433 1.78528 13.6442 66 70 45
0.0744701 1.24479 12.4248 70 40 24
1.95149 1.97897 13.5179 94 92 75
0.376628 1.55459 12.953 124 84 66
-0.19539 1.51218 12.4136 79 46 38
0.76669 1.6609 11.009 131 128 109
-1.73891 1.8786 14.8677 87 48 33
-4.60782 0.597681 11.8057 111 112 94
-1.61206 2.05604 14.3697 94 50 38
-1.66146 2.40985 14.9805 104 58 42
-1.10972 3.55987 15.7905 124 86 76
3.47925 -2.86792 10.9934 109 112 80
1.62035 0.912977 14.5439 58 46 30
0.361999 1.264 12.3076 92 82 64
-1.585 2.2921 16.1985 138 116 96
0.380205 -0.303802 13.6306 109 111 100
-0.677007 1.14161 12.4511 105 70 56
-0.275775 1.78658 12.9382 76 46 44
0.573226 2.02067 10.9216 104 102 89
0.669271 2.34689 10.6847 180 169 152
0.447104 0.932205 12.7977 66 68 46
3.35069 -2.93055 11.3471 126 124 82
3.28954 -2.75236 11.3728 143 138 110
1.44864 -3.1464 13.8863 150 158 112
0.807001 -2.86417 14.0012 119 124 80
-1.42191 -1.55659 14.4432 101 104 76
3.12834 -0.644268 14.4431 115 114 80
3.20692 -0.616523 14.8171 146 143 104
3.16432 -0.43807 15.0545 144 140 102
2.5477 -0.453937 15.2233 105 101 71
-0.133847 -0.657598 16.0323 124 121 91
2.54423 -0.268562 15.608 154 132 100
1.19671 0.332792 14.1992 66 66 42
2.36177 0.773092 13.2114 178 167 146
-0.504362 0.538208 15.5817 45 34 24
1.21491 0.787324 14.3287 46 45 28
-3.92903 0.0536982 12.3975 142 144 106
-2.22526 0.554602 11.602 42 40 20
0.12995 1.17209 12.6219 62 41 30
-0.619906 1.08906 12.265 101 66 58
-0.782409 1.07521 12.3163 143 107 97
0.40603 1.2722 12.2957 91 84 68
-0.77703 1.13635 12.2841 112 76 67
0.495169 1.67498 12.8016 100 68 65
-1.84848 1.36794 13.4736 84 36 22
1.15684 1.86099 12.9673 108 77 74
-0.326366 1.74971 12.8052 90 56 52
0.832015 2.08103 13.0147 100 70 68
0.473896 2.13315 13.0517 116 85 84
0.625855 2.02015 11.0033 95 94 78
0.11551 2.26877 12.9413 136 107 104
-0.239132 2.6992 13.2426 114 76 70
0.886573 3.13744 13.6861 96 58 54
0.00167121 2.91701 13.4007 98 61 59
-3.05982 1.75204 10.621 82 64 40
0.008407 3.18154 13.5593 115 71 70
0.298663 3.65227 13.9025 104 60 59
-0.709107 3.89447 14.8301 132 98 94
0.602454 4.1617 14.3047 78 44 43
0.412714 4.4544 14.4946 152 119 116
0.730395 4.54869 14.6423 128 99 98
0.292831 4.64563 14.7011 165 142 139
-0.00976093 4.55919 14.6069 142 104 96
1.37271 0.62396 14.2023 44 36 24
-2.91089 -2.87888 14.5408 83 85 62
0.493768 4.68041 14.6044 160 131 130
-3.91382 -4.22191 14.8293 128 126 94
-2.20906 -1.12833 13.3077 114 112 79
-1.85869 -0.977789 13.6773 105 102 73
6.91285 -4.87277 16.2588 186 189 138
-2.8185 -3.3741 14.9341 138 138 90
-0.821398 3.47583 14.6949 136 112 110
-0.506111 -1.95568 9.58863 133 136 96
-0.143798 -1.99114 14.4762 120 122 74
-2.25471 -1.98903 14.6112 88 84 56
-0.240515 -1.60555 14.3983 106 106 62
2.57276 -0.594327 15.3638 111 115 80
-1.36613 -0.711526 12.92 105 106 64
-2.33692 -0.860165 15.3277 94 67 48
2.54792 -0.449561 16.1608 124 124 90
0.109101 -0.485262 13.7642 74 80 64
0.255241 -0.43496 13.771 58 68 46
2.38482 -0.0415834 12.9425 143 130 94
-1.44172 -0.374031 12.4746 102 106 66
-1.44078 -0.255575 12.2517 94 100 58
-1.19573 -0.093281 15.1748 48 48 31
0.703076 0.189933 14.7313 68 61 56
1.41262 1.14155 12.5244 152 122 101
-0.0170497 0.966745 12.7784 20 18 14
-2.43908 0.845005 14.7556 136 100 81
-2.00807 0.702968 11.2348 105 112 89
0.56649 1.4211 12.2445 94 80 68
0.645717 1.54252 11.3704 41 48 28
-0.85172 1.57164 12.7018 111 66 50
-0.579847 1.72807 12.8312 57 28 26
1.09385 2.09644 13.0665 78 48 44
-0.524695 1.95496 13.0291 91 64 60
0.0036079 2.05517 12.8051 74 39 38
-0.510626 2.05317 13.0839 76 45 40
0.831801 2.14091 10.6807 144 134 111
-1.43773 2.76313 16.5125 124 101 76
-0.0621249 2.53332 13.1737 84 49 45
-0.676155 2.43259 13.1602 74 34 24
-0.415789 2.56561 13.3793 84 52 47
-0.632647 2.62216 13.5488 86 39 24
-0.35983 2.89556 13.5422 96 60 54
2.16202 3.96348 14.9678 90 63 57
1.33538 3.73257 14.2473 92 58 54
-0.661155 3.55535 15.11 108 72 62
0.573172 3.63325 13.9882 80 50 50
-0.853879 3.52455 14.6075 76 32 24
-0.74769 4.17796 16.4129 111 72 56
-0.137442 3.76239 14.1638 112 80 72
-1.02211 3.81048 14.8548 81 56 39
0.161902 3.94188 14.1329 94 48 44
-0.385214 3.91032 14.4482 73 22 11
-0.119167 3.97857 14.2759 93 46 38
0.165202 4.26184 14.3998 70 30 26
-0.144379 4.34995 14.9194 84 28 16
0.327606 4.49752 14.6121 104 70 65
0.481362 4.67295 14.5621 146 124 123
0.206501 0.499215 14.3772 98 98 89
0.898153 2.56885 10.5609 160 140 122
9.52697 1.70275 13.91 116 124 70
-0.327113 -1.47217 7.15719 93 88 40
-2.18241 -0.769645 15.3746 116 95 66
2.49522 -0.423748 12.9725 123 102 66
1.71273 0.817896 13.0786 71 41 20
-0.965786 -4.46917 16.5697 118 120 76
3.47381 -2.91406 11.0479 78 78 51
-0.246489 -2.11332 8.67315 104 108 66
-0.46082 -2.01615 9.19527 96 96 54
-0.278404 -1.55341 7.2226 106 110 62
-0.341176 -1.48284 7.26101 111 118 70
-0.578904 -2.93589 15.1513 88 100 60
2.02038 -2.02347 12.07 74 82 58
-2.44489 -2.23535 14.6692 70 65 37
1.73491 -1.68865 12.5642 76 84 62
-2.08737 -1.73485 14.4803 84 79 52
-0.0451169 -1.48897 14.239 136 136 91
-1.8651 -1.43655 14.3997 72 71 40
-0.272835 -1.19004 14.3341 105 102 54
-1.13936 -0.92823 14.2707 64 69 36
0.713443 -0.693075 13.377 72 78 58
-0.611677 -0.778025 12.9839 92 91 43
-0.84081 -0.653051 12.6563 92 96 61
2.40925 -0.421223 14.1738 89 101 59
0.55815 -0.165296 14.6151 82 95 84
-0.0488062 -0.20463 14.0503 97 96 85
-2.42881 -0.373879 14.8767 146 136 94
-0.314851 0.29045 13.9229 72 77 60
0.0414341 0.503356 14.3945 81 82 72
2.08124 0.734459 14.3942 22 8 5
1.99349 0.678449 13.1602 94 50 15
0.543869 0.589271 14.7125 60 59 40
-2.61466 0.288416 14.6978 112 94 69
-2.50601 0.442988 14.6263 139 100 76
0.0517466 0.953816 13.393 24 22 18
1.86159 1.21683 12.7517 142 106 90
0.829027 1.0623 12.2354 80 68 50
0.566706 1.12283 12.1422 42 50 27
-0.741939 1.12315 13.08 54 24 16
-0.839374 1.29375 12.5798 109 67 47
-1.93867 0.99813 11.3797 96 70 45
-2.17346 1.02371 11.093 34 44 27
-0.83728 1.4164 12.5885 74 32 18
-0.84479 1.72992 13.1186 60 20 12
0.381808 2.1495 12.9404 76 50 47
-0.968863 2.1292 13.4077 75 29 21
1.06215 2.72878 13.5808 58 26 20
1.12786 2.79769 13.4725 58 27 24
-0.923819 2.46231 13.6436 62 20 11
-0.403469 2.67415 13.4349 74 41 32
-0.600938 3.2377 14.2655 86 34 23
-0.105735 3.17175 13.5948 101 55 48
-0.263695 3.25258 13.7961 106 78 75
-0.488627 3.40194 14.0433 79 23 14
0.0644041 3.48659 13.9437 90 38 29
-0.0059722 3.70967 13.9427 90 38 33
1.28368 4.09307 14.4736 120 91 89
1.09064 4.32054 14.4898 94 64 62
-0.330244 4.47068 14.9468 125 79 64
3.8671 -3.47084 10.5243 100 104 62
-1.01066 -5.14386 17.1732 111 112 67
-0.753988 -3.96522 15.9076 93 100 66
-0.324502 -1.38004 14.3238 110 106 66
1.00993 0.47783 14.7159 30 28 18
-3.54004 0.0552329 12.2374 65 72 50
-0.340988 1.90902 12.8147 56 23 20
0.164412 2.4602 13.1269 62 25 20
-0.814033 2.53627 13.604 80 35 21
-0.615784 3.67463 14.4163 100 42 29
-0.589311 2.30917 13.3719 58 20 12
-1.40825 -0.977783 14.3082 116 118 77
-2.3598 -0.653735 15.1637 98 79 50
-0.593739 1.1527 12.5154 64 32 22
-5.5333 1.69396 11.6424 55 56 32
0.94754 3.6599 14.173 86 46 42
-0.135116 -2.79495 15.1685 100 108 64
-0.372855 -2.16071 15.0844 94 102 56
-0.446354 -1.12259 14.6612 90 91 44
2.28614 -0.531846 14.8431 136 136 101
-1.27781 -0.0911645 12.2285 92 98 73
2.05686 0.387789 13.0326 140 114 83
-0.886689 1.0873 13.1254 69 31 21
0.570955 1.47943 11.9096 37 39 20
2.13161 2.30972 13.9829 95 75 58
-0.934615 3.31332 15.7947 80 48 32
-1.12109 3.43404 15.6296 84 68 52
-0.394174 -3.73187 15.7466 101 110 68
-0.289911 -3.40868 15.5196 92 102 55
-3.21284 -3.11181 14.8578 107 106 62
-2.08203 -2.49259 14.8536 41 50 24
1.90394 -1.85963 12.4013 64 71 47
1.14269 -1.12767 12.9627 64 70 56
2.94863 -0.649111 13.4959 61 44 12
2.51943 -0.566572 15.2152 100 103 68
2.64131 -0.447894 13.1367 128 104 70
3.01845 -0.415265 13.1591 152 160 118
-1.76465 -0.790191 15.4375 68 59 39
0.790102 -0.546751 14.2059 79 77 60
-2.34096 -0.649088 15.3125 104 87 52
0.922663 -0.394257 14.7121 69 65 54
2.2467 -0.287688 15.5408 134 112 88
2.54466 -0.178056 12.689 138 100 78
-0.329626 -0.381991 13.7254 70 73 61
2.41809 -0.206568 15.6751 112 94 66
-0.289089 0.0207516 14.344 77 72 49
-2.38628 -0.176485 14.6565 106 104 65
0.301281 0.145141 14.329 94 99 90
2.43447 0.423745 13.2808 167 132 122
-3.28337 -0.0196126 12.4538 58 62 38
1.35083 0.568983 14.0044 30 26 14
-3.94277 0.198238 12.3162 64 72 48
1.81352 1.01237 12.8748 108 62 37
1.34785 1.06832 12.7583 124 100 88
-2.297 0.845801 14.6738 118 72 41
0.186893 1.02375 13.0848 20 19 14
-2.32344 0.97368 14.7273 153 122 96
-0.895533 1.08323 13.1116 58 27 16
0.341941 1.33499 12.0756 62 53 38
-2.1909 0.930271 11.0463 87 97 74
-1.27864 1.4096 13.1306 140 88 64
-1.25889 1.67663 13.2494 160 114 103
-0.997595 2.14783 13.566 57 16 8
-1.27412 2.31423 14.0596 88 48 38
-0.204019 2.29047 13.0937 61 25 20
-5.57825 1.77462 11.8465 48 47 24
-2.98658 1.9285 10.6154 78 78 62
1.65227 3.6194 14.3971 68 26 17
-1.03754 3.61099 15.3526 64 17 8
-0.869684 4.10012 15.6513 104 58 39
-2.96436 2.3523 10.3137 90 82 60
3.82655 -4.31165 10.1094 127 131 78
3.29763 -2.72279 11.2544 100 100 68
0.338562 4.04823 13.9664 68 26 22
-0.253871 1.03588 12.6524 14 7 4
3.26758 -1.14582 13.2538 132 139 96
1.91903 -0.257885 15.4617 59 36 22
-3.91352 -4.15402 15.0241 74 76 58
-0.350026 2.81882 13.6045 99 52 35
-2.2371 -2.83973 12.2267 112 116 70
-0.846846 -3.21506 15.6169 118 124 78
2.19056 -2.16493 11.9524 90 96 72
1.87028 -2.04245 12.8825 94 100 54
-0.927184 -1.5376 14.7017 84 90 40
-0.65882 -1.42342 13.9194 96 99 52
-0.360761 -1.39536 14.2327 104 104 62
2.83701 -0.503559 13.1748 102 67 36
-1.2495 -0.721101 13.1855 95 97 60
-1.41331 -0.369442 12.6308 93 100 57
2.08548 0.148886 13.9711 50 40 20
2.05741 0.396819 13.0301 104 63 30
0.940027 0.790751 13.6608 36 32 20
-0.593865 0.837989 12.7752 50 30 17
1.05523 1.0844 12.8731 54 50 32
0.350583 1.23903 12.6284 43 36 24
1.13679 2.12282 13.1099 65 33 28
-1.35144 2.53027 14.0532 80 33 20
1.77359 3.1053 14.1851 65 28 20
-1.13868 2.99998 14.7373 64 19 12
0.837979 2.71251 10.6583 126 100 87
1.68755 4.39136 14.893 134 116 112
-0.210789 -1.67804 10.1661 115 120 98
1.70651 -2.32111 15.3966 114 116 84
1.82974 -2.28026 16.1826 62 68 43
-0.198469 -2.00139 14.3213 121 125 76
0.901541 -1.79197 15.0056 93 100 60
0.599651 -1.23058 12.8456 108 113 88
-0.146808 -0.984729 13.2231 116 118 84
2.46791 -0.554884 13.899 94 106 64
1.48102 0.74953 13.3928 18 8 6
0.59858 0.861675 12.1217 50 44 34
0.913749 1.28278 12.0579 68 57 39
1.52348 2.51138 13.7623 74 45 39
2.33274 3.13178 14.8024 104 80 70
2.18332 3.36824 14.6431 104 84 70
2.12682 3.57785 14.7845 98 74 61
2.0745 4.53477 15.574 124 104 95
1.95087 -4.12636 15.505 91 96 53
2.51662 -2.55036 11.8894 96 98 54
-2.67299 -3.04682 14.8141 54 59 36
1.83692 -2.02114 12.816 96 102 60
-2.90571 -1.62171 16.6553 60 60 27
3.28089 -1.12882 13.2954 132 144 98
2.66588 -0.634459 13.8828 64 72 36
0.751605 -0.464867 13.7154 122 108 78
-2.64206 -0.560613 15.06 142 111 70
2.07642 -0.290617 16.4299 60 30 17
-2.7893 -0.0331916 14.4863 58 62 39
0.295242 0.216501 14.3658 82 85 76
-0.804066 0.201578 13.4945 57 63 51
-0.080134 0.513317 14.5384 49 52 38
-0.624782 0.552435 14.4462 24 26 14
-1.23827 0.473558 12.1662 50 49 38
-1.30659 0.52061 12.639 29 28 18
0.777333 0.754072 13.4853 28 30 17
1.68591 0.905312 14.3364 30 16 10
-1.40913 0.585685 12.0099 42 44 29
-1.44407 0.703736 12.1337 26 26 18
1.59155 1.01525 12.9862 88 52 31
0.13681 0.987849 13.5711 26 26 18
1.16819 1.00113 12.1895 126 100 86
0.735505 1.03684 12.1015 56 50 32
0.303045 1.08244 12.3624 42 42 24
1.62008 1.34497 12.7627 114 84 76
0.344683 1.19909 12.0323 40 44 22
-2.32518 0.929482 11.1545 72 82 48
0.390537 1.46431 11.9238 66 56 46
-2.59458 1.16209 11.0925 93 90 58
-2.76923 1.39954 10.8607 91 86 59
-2.58691 1.38995 10.7075 80 84 64
-0.527256 1.99803 13.0249 108 86 81
-2.66479 1.47658 10.7088 89 90 72
1.2959 3.72756 14.1367 72 34 32
1.90299 4.13248 14.9453 88 54 44
0.0814843 3.58077 13.5833 92 38 30
-3.54324 2.41156 10.3102 132 120 109
1.18491 4.32717 14.6877 103 72 68
0.293781 4.26001 14.5442 79 32 26
0.122995 4.43963 14.5981 92 46 35
3.36817 -3.01601 10.6871 126 128 88
2.53792 -2.39378 11.527 69 72 44
-0.931519 -1.20276 14.2185 51 56 24
-2.58065 -0.193473 14.6134 106 78 53
1.83716 0.712788 13.1 96 60 45
-0.29285 2.36987 13.3319 64 27 18
0.245632 3.26784 13.5561 82 31 24
-0.515619 -0.227135 14.1775 70 66 40
-0.0663596 1.04374 12.6157 22 12 7
-0.519459 2.04293 13.0258 86 57 52
-0.97205 -4.13122 16.1907 112 115 76
-0.882379 -3.17753 15.5052 106 110 66
-2.67775 1.99628 10.6376 104 99 77
-0.8832 3.38645 14.574 102 56 46
-1.8011 -2.43519 14.9905 94 98 59
-1.35323 -1.96268 14.8315 86 88 50
-1.09523 -1.57588 14.7289 68 73 40
-0.668198 -1.26347 14.4766 96 94 52
-1.33932 -0.621549 13.4326 154 153 105
2.74942 -0.156906 12.8142 144 150 114
2.25654 0.102058 14.3631 42 36 18
-0.414661 0.016332 15.0206 69 62 44
-0.918615 0.375686 13.4231 26 25 16
-0.537021 0.789141 12.7788 64 49 35
-0.696003 0.805602 12.5545 32 26 21
-1.54136 1.5189 13.5524 64 31 24
-1.50522 1.65541 13.4536 104 61 52
-1.12779 3.01572 14.8127 63 18 12
-1.22087 3.1405 15.2506 64 18 8
-1.35723 3.28596 15.6913 116 83 60
-1.15497 3.81375 15.8145 121 90 74
1.90682 4.3199 15.1627 86 58 47
-0.905759 -5.90843 18.5231 100 106 50
-0.939005 -3.83518 15.9596 114 118 75
-0.379742 -1.89485 8.46019 88 86 50
-0.258337 -3.11542 15.2524 97 108 60
-0.347722 -1.82162 8.93164 100 104 78
-0.193865 -2.78168 15.0761 104 115 68
-0.0947665 -2.42546 14.9892 106 113 69
-0.288675 -1.67603 10.1955 81 84 80
-0.151553 -1.6623 10.2492 104 112 90
1.64678 -1.85756 12.9846 77 82 38
0.276054 -1.97278 14.7906 144 146 100
-0.248396 -1.73726 14.2241 78 86 34
-0.0120956 -1.67235 14.4861 110 112 66
0.358368 -1.42966 12.1593 86 96 64
1.40044 -1.35556 12.9368 72 75 60
-0.615333 -1.12419 11.5731 84 81 56
0.864111 -1.15019 13.8013 105 109 76
-0.195398 -0.883021 12.1856 78 85 76
2.45532 -0.528836 13.8355 72 80 41
2.41311 -0.422215 14.1709 66 76 37
2.15381 -0.197903 12.6659 130 120 93
2.68105 0.0238028 14.7798 116 96 84
1.5227 0.0261879 17.1522 32 32 26
2.79443 0.103931 14.7259 107 80 58
-2.87657 0.0677065 12.6772 54 60 46
2.58579 0.46046 14.4569 51 28 14
2.36834 0.658097 14.8017 31 11 6
0.775932 0.83207 12.8479 62 58 42
0.646064 0.820434 11.7824 24 12 7
0.775648 0.934488 12.4991 72 68 51
-2.22818 1.04622 14.3989 142 114 86
1.75685 1.17515 12.6691 88 52 34
-2.12076 1.30121 15.1619 123 100 78
1.63555 1.46285 13.1605 109 81 74
2.25077 1.67995 13.6418 110 100 90
1.24382 1.44895 12.2817 112 83 74
2.05942 1.69643 13.6918 48 24 16
-1.56328 1.38803 13.4469 141 100 78
1.90382 1.78005 13.0546 110 99 85
0.556699 1.66808 11.1252 44 49 27
-1.81223 2.08913 14.4006 116 103 79
0.856225 1.82352 11.0608 106 96 79
0.36996 2.10782 12.8989 106 79 76
-1.67685 2.39232 14.9886 124 98 74
-1.57052 2.70587 15.8129 126 105 82
1.45934 2.73586 13.843 100 72 69
-1.49666 2.82121 15.2727 116 88 69
0.7717 2.11545 10.5604 102 96 68
1.3768 2.98459 13.6334 78 46 42
1.76267 3.45517 14.1609 60 27 21
1.00133 4.04032 14.6837 91 49 46
1.6161 4.69932 15.6021 120 100 97
0.546065 -0.660228 14.0424 52 57 36
2.39986 -0.0395982 15.6945 43 34 15
2.70842 -4.68388 13.7483 125 128 86
-0.976033 -5.7301 18.0636 95 100 50
2.79277 -2.70682 11.6456 100 102 61
-0.884129 -3.14362 15.3623 87 93 52
2.67592 -2.50217 11.5778 67 68 48
1.53435 -1.77557 12.8519 84 90 48
1.89548 -1.66641 12.5313 72 79 55
-0.272584 -1.39066 10.8475 94 98 93
1.3179 -1.35846 12.4924 46 53 37
-2.33959 -1.52666 16.3525 93 92 44
1.08073 -1.09645 12.8122 54 58 44
1.20705 -0.934506 13.1792 118 126 98
2.94174 -0.670298 13.3967 69 56 28
1.73028 -0.463404 16.7219 156 124 82
2.0552 -0.450644 16.6312 119 110 71
-1.74111 -0.152701 12.5624 102 97 54
2.71855 -0.146397 12.7361 134 149 110
-2.01627 -0.0139694 12.8612 56 59 41
0.300755 0.0509719 14.3325 87 94 84
-3.68315 0.107121 12.9912 56 61 37
-4.21319 0.232799 14.1603 58 61 40
-1.50618 0.187367 12.1911 53 64 42
-0.545007 0.780705 12.5984 52 40 33
-0.695423 0.797623 12.4288 35 26 23
1.38083 0.89517 12.5387 66 38 30
1.9119 0.94208 12.8157 116 73 58
-0.592864 0.961976 12.4955 104 79 71
-1.44898 1.09387 13.6387 58 29 18
-2.41942 0.899715 11.3242 94 88 58
-1.38426 1.15995 13.454 81 45 28
1.7797 1.16912 12.6779 89 48 31
-0.217071 1.2594 13.644 50 24 19
0.734254 1.12312 11.9579 59 51 32
2.06825 1.4206 13.2787 100 74 62
1.34411 1.33819 12.492 151 124 117
1.15884 1.34376 12.4379 138 112 104
-1.55629 1.50307 13.4807 78 43 36
0.749517 1.33973 11.6566 90 80 60
-0.93527 1.50166 12.6376 158 109 82
0.749535 1.46682 11.5217 54 36 22
-2.3971 1.32836 11.0748 103 108 89
0.383372 1.58709 11.3664 60 50 34
0.533871 1.64468 11.0369 37 40 20
0.491126 1.79154 11.361 50 42 24
-0.467734 2.34533 13.2291 78 48 42
0.132686 2.48736 13.1771 70 28 22
-0.190247 2.72806 13.3427 82 42 33
0.30058 3.14836 13.483 62 20 15
-0.451151 3.23279 13.9068 88 36 22
1.0206 3.57819 13.9211 78 38 34
0.0487928 4.50033 14.812 97 58 54
2.39242 -2.34536 11.8081 60 68 42
2.7538 -0.548668 13.3607 70 52 22
-2.61522 -0.0598778 14.3422 51 56 34
-1.07785 0.273695 13.5338 30 28 20
1.79591 0.679831 12.8991 78 38 18
-0.458527 0.881881 12.6999 60 46 34
-3.64881 -3.89202 14.9638 82 80 60
-2.27279 -1.98325 14.4979 110 106 70
-0.121081 0.198235 14.2 88 84 70
-2.295 1.51355 10.8723 95 92 71
-0.744133 2.93713 13.9762 79 30 20
3.08103 4.07926 16.3249 132 127 121
-2.34275 -2.90221 14.9124 94 96 56
-2.06845 -2.66627 14.9616 94 96 50
-1.81862 -1.93883 14.4355 54 58 34
-1.30867 -0.722205 13.2416 144 144 100
-0.527743 -0.594631 13.3109 58 58 28
-1.45883 -0.561533 12.8575 93 94 63
-0.431154 -0.287085 15.024 72 67 46
2.08745 0.0850706 13.8066 40 35 18
2.08795 0.216676 12.9876 108 75 44
1.15663 0.715606 14.2615 22 21 13
1.82187 1.28345 12.785 97 60 49
-1.49603 1.67528 13.6104 95 52 41
1.30572 1.68595 12.6043 98 72 67
0.810833 2.52591 13.067 90 59 54
-1.24022 3.09448 14.9872 64 20 8
-1.37246 3.30864 15.7824 124 92 70
0.580259 2.25055 10.4319 74 52 23
-1.14293 3.85467 15.8789 116 85 71
-0.0243603 4.48336 14.9259 124 78 63
2.36138 -2.43779 12.1576 105 108 66
1.10996 -1.28978 14.3932 119 124 90
-0.134461 -0.970896 11.8394 76 84 76
0.93784 -1.12537 14.5231 60 65 40
-1.96356 -0.00647686 12.5547 58 62 43
-1.56446 0.64242 11.8987 46 50 31
0.734534 0.906596 12.3507 64 57 44
0.739766 2.40805 13.3069 58 28 24
3.50534 -3.02095 11.055 122 127 88
1.8132 -1.83469 12.2643 68 76 53
0.781231 -0.86746 13.7247 54 58 32
0.165269 -0.471913 14.0878 72 80 65
1.75133 0.0873509 15.1491 55 42 28
-2.87211 2.29847 10.3758 75 70 45
1.03718 -2.40606 15.0021 84 87 46
-0.349064 -1.63926 10.003 72 71 62
0.949605 -2.11212 14.9449 74 82 43
-0.13454 -1.36548 11.008 80 88 78
-0.0892708 -1.19373 11.4457 69 78 62
-0.260151 -1.00987 11.6774 77 82 66
-0.2532 -0.866866 12.0519 61 66 52
0.686173 -0.686709 13.2689 70 74 57
1.47397 -0.532474 16.8043 149 135 104
2.61543 -0.407588 13.0538 80 60 28
-0.154615 0.184411 14.0809 94 90 75
2.14296 0.324769 12.682 142 108 100
2.64643 0.574782 13.7639 130 110 87
2.11832 0.579592 12.9557 126 94 78
1.82812 0.559024 12.853 86 52 33
0.22169 0.748072 14.3577 18 20 7
2.41629 0.717712 13.4566 119 96 71
2.00765 0.680924 12.839 138 104 98
-0.427358 0.766052 13.0208 20 12 7
2.1158 0.812534 12.9622 123 100 88
-1.59953 0.981714 14.1766 74 57 42
-1.80084 1.24446 13.6169 114 72 44
-2.19119 1.13776 11.0844 16 26 10
-2.45211 1.24101 10.8374 80 81 58
-2.1685 1.26745 11.0691 74 76 55
-2.21837 1.3587 11.0077 50 52 30
1.38596 1.6779 12.8355 82 56 53
0.445248 1.48952 11.3489 36 38 18
-2.65563 1.47248 10.6343 87 90 70
1.54295 2.02369 13.3032 56 28 22
2.11573 2.17856 13.9335 96 74 64
2.61308 2.40491 15.1393 110 94 80
-0.0217998 2.16852 12.7842 82 39 28
1.58806 2.43398 13.377 62 32 24
1.82557 2.76146 13.9984 54 22 14
2.5476 3.33695 15.423 87 68 54
2.18767 4.34294 16.0354 101 72 65
2.24581 4.33552 15.7528 116 100 93
1.67049 4.17035 14.789 106 80 75
0.914852 4.11119 14.3499 72 29 26
2.13616 -2.14371 11.8677 73 76 56
-0.126897 -0.347244 13.5889 68 71 62
1.23012 0.880033 14.4428 24 15 11
1.02444 1.51036 12.3136 60 21 16
-0.532457 1.9338 12.9331 98 68 63
1.59972 2.29038 13.5261 64 34 24
-2.72815 -2.54958 14.5988 92 86 50
-0.223467 -1.1323 11.2785 84 90 76
-1.73178 0.906866 12.687 52 37 18
1.94823 1.13461 12.8938 126 92 86
-1.30246 2.11834 13.7003 48 18 13
-1.30749 2.31202 14.3008 89 48 33
-1.14391 3.92546 16.0461 112 78 64
3.90385 -3.531 10.6135 108 116 74
3.71184 -3.14679 10.7359 119 126 76
3.43938 -2.98168 11.0686 44 45 12
3.37417 -2.79121 11.0826 129 131 89
3.29778 -2.73618 11.2814 106 110 78
-0.505976 -1.99115 8.69713 122 121 75
-0.50053 -1.94359 9.05113 92 87 54
-0.448397 -1.85028 9.06945 65 59 42
-0.845268 -2.79752 15.1285 96 101 56
-0.564231 -1.85034 9.71267 132 132 97
-0.404476 -1.74091 9.60566 77 74 62
-0.583273 -1.71455 10.3598 76 72 48
-0.624627 -1.57311 10.4782 84 80 54
-1.11954 -1.55241 14.6097 66 72 38
-0.606773 -1.14126 11.5746 96 92 63
-0.133897 -0.970345 11.8769 74 82 71
-0.554959 -0.833354 13.4843 102 98 62
2.53716 -0.440236 15.0048 128 140 102
2.51964 -0.0189232 12.7118 128 96 82
-1.33868 0.073639 13.3754 55 59 44
-2.16366 0.174884 12.3089 88 75 52
-2.08099 0.538364 11.1051 90 80 45
-0.111423 0.776065 14.1587 34 28 18
-1.97446 0.747176 12.145 50 56 27
-2.07887 0.798538 11.3106 78 84 54
2.25004 1.17514 13.4834 101 80 71
2.67955 1.33803 14.396 128 118 104
2.68695 1.51893 14.7811 70 47 32
0.92286 1.31358 13.0553 67 58 36
-1.98251 1.47554 14.1769 122 99 78
2.59854 1.67398 14.455 114 99 89
-1.78925 1.89341 14.9423 120 92 72
2.46783 1.80602 14.2513 72 45 29
-2.28163 1.31009 11.0024 49 54 37
2.7656 1.96697 14.8909 90 84 70
-1.76959 2.06574 14.8716 110 86 63
1.17894 1.8563 12.9303 50 17 14
-1.66782 2.21062 14.8314 122 92 68
0.348511 1.86938 12.7333 60 29 24
-0.767459 2.09625 14.0301 65 23 15
-1.66465 2.34792 14.8249 114 89 66
1.15574 2.12028 13.1397 72 58 38
2.42398 2.91438 14.8512 102 80 64
0.386642 2.64849 12.9048 120 94 88
1.27185 2.71197 12.9993 88 66 42
-1.18566 3.43114 15.3375 120 86 67
2.32724 3.46797 15.0406 107 87 74
-2.88699 2.27774 10.4634 58 61 26
1.96236 3.40807 14.1817 105 81 75
1.03636 3.29007 13.741 82 42 38
0.970688 3.32215 13.7622 85 41 36
2.16389 3.8313 14.7861 108 90 81
2.05796 -4.15046 14.7616 100 110 66
1.98792 -3.69458 15.4407 100 116 66
1.1618 -2.87249 13.7524 78 90 50
1.57233 -1.64593 12.311 72 76 57
0.662533 -0.419721 15.2204 70 76 62
2.60664 -0.297147 15.8613 90 78 50
2.28916 -0.184372 15.2821 108 97 71
-1.26118 -0.0715367 14.14 110 118 92
1.70743 0.171315 15.3974 43 36 22
-1.46945 0.858278 13.7689 50 28 16
-1.97088 0.681974 11.3665 88 96 64
-1.821 0.889942 13.1822 32 40 19
-1.81724 1.06144 13.4384 110 80 50
0.711699 2.72734 13.2359 39 18 12
1.83516 4.01058 14.5776 83 56 52
-1.13948 1.01237 13.3261 32 12 5
1.20955 -3.30528 14.0826 101 110 66
0.564635 -2.58288 13.9703 121 124 76
-0.399872 -1.7414 9.61574 76 70 57
0.805137 -2.37836 13.4777 102 112 67
-0.327572 -1.72555 9.83347 66 67 54
-0.43053 -1.5599 10.1837 80 74 62
-0.186728 -1.50918 10.6917 64 69 56
-0.103606 -1.51934 10.8389 84 90 78
1.59473 -1.65355 12.3752 87 91 70
-0.168835 -1.13009 11.5053 73 76 60
-1.16361 -1.29217 14.5607 67 70 40
1.1772 -1.19679 12.9671 37 42 29
-3.48757 -1.39549 17.4446 152 144 86
-1.05725 -1.19199 14.528 59 64 32
0.241889 -1.08994 12.776 99 104 68
-0.101926 -0.823155 12.2626 70 77 61
-0.405402 -0.772495 12.1917 68 69 52
-2.19094 -0.819951 15.7589 106 94 55
-2.25801 -0.70638 15.7475 134 124 68
3.19152 -0.653188 13.438 138 144 108
1.5585 -0.650365 17.0265 145 139 94
2.53035 -0.544151 14.0044 83 89 52
-0.777016 -0.404463 14.1489 54 56 25
1.34843 -0.43094 16.8846 88 59 42
2.44615 -0.42531 15.7359 92 86 54
0.546651 -0.297258 14.1817 36 46 34
2.34604 -0.327975 16.3375 91 74 49
0.81225 -0.118277 14.9655 36 28 22
0.354644 -0.14345 13.7292 51 59 44
0.816557 0.0330461 15.3414 28 24 16
-1.34035 0.0731481 13.3209 48 48 36
-2.28093 0.139572 13.1616 106 88 67
-1.05248 0.135757 13.5171 46 44 32
0.521872 0.183281 14.1924 48 58 39
2.2618 -4.53215 15.2631 104 118 76
1.97802 -4.25635 15.4119 109 117 72
2.06577 -3.97303 15.1518 96 104 58
1.56802 -3.45901 15.5964 87 98 60
2.04256 -2.17362 11.8771 100 104 67
0.842456 -1.65921 14.7745 66 72 36
-0.201616 -0.697229 12.9868 48 56 42
-2.68731 -0.028728 12.6211 52 52 30
-1.71091 0.0665294 13.5556 86 94 58
0.448176 0.308117 14.3803 58 66 50
-2.18332 0.93997 11.1109 82 94 66
-2.54098 1.34141 14.774 67 65 44
-2.54258 1.97531 10.6855 70 68 44
-2.68798 2.05685 10.7605 50 50 23
-2.49655 1.94638 9.94601 56 56 28
0.654335 2.34853 10.5195 108 78 42
1.73488 4.19338 14.5853 96 71 63
-0.730172 0.454124 13.1211 36 38 26
3.56208 -3.29861 10.4558 83 88 44
1.21538 -2.23438 14.4147 46 61 35
1.79428 -1.68912 12.2827 51 60 41
1.60201 3.80892 14.1174 78 39 32
1.05673 4.10991 14.3746 72 31 26
1.77796 4.45278 15.2276 106 88 83
-3.28488 -0.0748169 12.6696 73 72 30
-3.60556 0.102474 12.2947 44 47 26
-2.86575 0.0700102 12.6082 38 44 28
-2.01541 0.365475 15.5847 105 91 54
-1.61484 0.75133 14.1453 49 32 19
-1.78474 0.980949 14.031 68 50 40
2.82 0.93376 14.2796 111 120 85
2.67797 1.08938 14.5053 68 44 28
-0.50057 1.16965 13.0508 51 24 16
-2.04643 1.34601 14.7814 148 120 96
-1.9043 1.42357 14.4049 139 110 98
-1.67148 1.66774 14.5038 84 38 24
0.383741 1.57857 11.2234 59 53 32
-0.180736 1.87354 12.5252 60 21 15
-1.24902 2.36895 13.9706 83 52 44
-0.548502 2.51271 13.3661 67 25 15
-2.82428 2.22057 9.97806 62 62 28
0.842802 2.44184 10.4733 100 64 41
-0.9114 4.09492 15.8762 99 54 40
-3.08942 -1.59019 16.4577 89 84 40
-0.325092 -0.66263 12.7936 60 67 52
-0.354307 -0.583648 12.8952 59 65 50
0.152193 -0.582084 13.4016 115 121 90
-3.78341 0.0313003 12.4507 94 92 50
-1.23098 0.488242 12.1078 66 66 54
-0.681677 0.464834 12.7136 43 52 38
2.70623 0.503284 13.7667 122 111 80
2.42288 0.687267 13.4608 112 92 62
-1.32542 0.934995 13.2661 39 15 10
2.87335 1.20222 14.5985 86 92 63
-1.71422 1.36475 13.5437 102 56 33
-1.88886 1.75609 14.9131 132 108 86
2.72659 1.81253 14.7127 114 106 92
0.346752 2.06444 12.7717 88 58 54
0.363092 2.17172 12.8892 66 38 34
-0.583675 3.38428 14.1234 96 38 26
-0.829863 4.20354 15.8769 110 72 51
-0.904768 0.681637 12.6518 29 27 18
0.669521 -0.677453 13.182 68 73 59
-0.779455 -0.569686 13.5655 95 100 64
-1.43531 -0.238965 12.2993 86 94 52
-3.94124 0.106526 12.1129 94 94 54
-1.5775 0.292024 11.853 48 60 40
0.926385 0.132273 14.8038 24 14 10
-4.58337 0.415733 12.0811 112 108 70
-4.17271 0.443606 11.902 78 78 54
-2.53631 0.389678 14.5553 108 72 45
-1.79262 0.426732 11.4615 88 98 69
-4.58312 0.633972 12.065 96 92 72
-2.48428 0.635079 14.7476 135 98 77
-0.785553 1.01183 13.1963 51 32 24
