ply
format ascii 1.0
element vertex 886
property float x
property float y
property float z
property uchar red
property uchar green
property uchar blue
end_header
-0.314464 -0.260441 0.362533 0 255 0
-0.27038 -0.256109 0.359253 0 255 0
-0.254955 -0.256568 0.361346 0 255 0
-0.216437 -0.253069 0.356434 0 255 0
-0.17469 -0.25112 0.361145 0 255 0
-0.17519 -0.250695 0.355876 0 255 0
-0.286453 -0.258471 0.355712 0 255 0
-0.355707 -0.266494 0.374085 0 255 0
-0.377104 -0.270082 0.385169 0 255 0
-0.417491 -0.285304 0.419457 0 255 0
-0.381147 -0.277107 0.409495 0 255 0
-0.344014 -0.274146 0.410264 0 255 0
-0.324097 -0.273529 0.412799 0 255 0
-0.274072 -0.269038 0.416635 0 255 0
-0.268546 -0.269193 0.409786 0 255 0
-0.179495 -0.251338 0.36795 0 255 0
-0.18016 -0.249661 0.363158 0 255 0
-0.256052 -0.206345 0.347535 0 255 0
-0.302463 -0.180727 0.650085 48 28 2
-0.233364 -0.195192 0.643695 202 198 238
-0.18038 -0.28558 0.596433 137 134 168
-0.299563 -0.181106 0.652456 85 74 58
-0.235349 -0.156271 0.620312 119 124 162
-0.302926 -0.177085 0.64783 47 30 18
-0.319015 -0.205504 0.626878 132 74 40
-0.302131 -0.207205 0.652849 102 84 58
-0.273915 -0.188908 0.633663 120 120 138
-0.333096 -0.208561 0.632529 152 116 62
-0.330079 -0.205649 0.630012 178 126 88
-0.203614 -0.264983 0.595893 179 218 255
-0.252919 -0.193297 0.641624 109 106 127
-0.266376 -0.19191 0.62747 158 150 176
-0.272519 -0.185649 0.632464 106 102 122
-0.31147 -0.217878 0.629773 140 112 39
-0.317175 -0.242936 0.647279 44 42 48
-0.339934 -0.185758 0.659829 111 72 3
-0.331046 -0.179162 0.646748 209 184 82
-0.232733 -0.174146 0.648841 102 86 108
-0.342594 -0.176917 0.659097 186 174 110
-0.322817 -0.24312 0.643224 43 47 50
-0.323561 -0.168789 0.633101 176 172 139
-0.20468 -0.255368 0.594765 134 169 230
-0.259703 -0.197217 0.637939 116 119 146
-0.194843 -0.227003 0.617945 112 96 118
-0.344801 -0.191148 0.661866 173 167 127
-0.333112 -0.17409 0.64994 192 186 144
-0.206239 -0.270746 0.597896 144 157 206
-0.20825 -0.161719 0.575605 192 195 233
-0.207624 -0.176235 0.617556 196 198 234
-0.221272 -0.254252 0.60064 143 160 209
-0.298605 -0.194009 0.648779 104 93 75
-0.193173 -0.192574 0.609959 166 153 180
-0.22971 -0.239282 0.610669 191 194 236
-0.332411 -0.211472 0.632439 4 6 10
-0.20667 -0.251498 0.595302 70 87 132
-0.319424 -0.211846 0.626684 170 162 104
-0.221316 -0.208781 0.629143 158 142 170
-0.321629 -0.2072 0.62663 167 154 93
-0.209255 -0.263589 0.597208 52 100 176
-0.335563 -0.215416 0.642172 82 88 108
-0.317371 -0.17876 0.628682 134 102 20
-0.317257 -0.200491 0.629064 126 86 42
-0.31728 -0.203601 0.626965 130 87 46
-0.27312 -0.195197 0.633178 89 93 120
-0.208264 -0.176145 0.577426 128 122 144
-0.199375 -0.251365 0.595157 153 147 177
-0.207818 -0.153038 0.588211 141 147 186
-0.256673 -0.168189 0.640638 170 172 206
-0.325523 -0.214421 0.627928 110 105 72
-0.312764 -0.21937 0.62746 173 146 72
-0.197919 -0.164631 0.575967 88 86 100
-0.316492 -0.194262 0.635029 138 106 32
-0.20138 -0.159926 0.574779 108 110 136
-0.242218 -0.189768 0.653202 128 128 152
-0.171847 -0.28605 0.599476 102 102 118
-0.227464 -0.216014 0.634231 170 166 206
-0.199519 -0.222479 0.618963 180 166 206
-0.298247 -0.218131 0.632263 147 116 48
-0.248195 -0.162209 0.6473 173 174 213
-0.294737 -0.218112 0.63366 110 98 72
-0.322842 -0.21523 0.626724 156 149 104
-0.273542 -0.194117 0.633035 119 122 150
-0.324351 -0.206753 0.627312 187 169 98
-0.32093 -0.168716 0.630275 162 148 118
-0.17492 -0.288155 0.599355 102 104 124
-0.204281 -0.193531 0.611573 153 136 164
-0.203954 -0.156844 0.580324 101 102 127
-0.33039 -0.190969 0.646369 221 198 97
-0.33419 -0.176548 0.652133 216 204 118
-0.199513 -0.173516 0.606196 185 176 215
-0.32064 -0.228788 0.643918 123 95 34
-0.212069 -0.170058 0.573672 217 222 252
-0.181712 -0.267554 0.594798 118 108 124
-0.325993 -0.208152 0.629405 154 140 90
-0.204215 -0.192295 0.615593 165 148 182
-0.206024 -0.189821 0.611163 196 190 228
-0.197073 -0.176231 0.606426 184 174 210
-0.333221 -0.211813 0.632364 112 106 62
-0.325059 -0.199948 0.627799 162 120 70
-0.233765 -0.20117 0.638216 178 174 214
-0.145644 -0.135859 0.584307 100 106 137
-0.319636 -0.243421 0.643954 74 67 48
-0.244555 -0.162747 0.643955 120 120 158
-0.221098 -0.194655 0.626297 220 218 254
-0.192054 -0.222901 0.616348 121 107 123
-0.230472 -0.200004 0.632821 185 185 226
-0.238437 -0.184046 0.64487 130 104 122
-0.225665 -0.201832 0.630801 166 150 186
-0.233599 -0.192671 0.640827 190 186 229
-0.201826 -0.158387 0.576843 104 104 132
-0.304645 -0.184711 0.644305 36 20 4
-0.319207 -0.251114 0.646214 102 106 124
-0.323611 -0.211711 0.626625 61 70 84
-0.264772 -0.1969 0.636635 124 128 152
-0.212401 -0.267853 0.599872 82 118 186
-0.21922 -0.20052 0.626248 210 204 246
-0.203083 -0.223515 0.618566 184 173 212
-0.226518 -0.183355 0.62695 212 218 250
-0.326597 -0.210641 0.62856 110 106 71
-0.235984 -0.164612 0.647708 91 82 106
-0.228242 -0.205128 0.629389 146 134 162
-0.24093 -0.162777 0.64646 108 98 124
-0.203278 -0.195363 0.610643 136 110 130
-0.207965 -0.226685 0.620066 146 137 168
-0.307541 -0.230748 0.619611 118 118 79
-0.132168 -0.271345 0.660988 99 92 100
-0.182169 -0.288022 0.601136 130 132 160
-0.138443 -0.149602 0.638738 82 78 92
-0.238734 -0.163408 0.648126 96 86 111
-0.307825 -0.226364 0.622826 156 147 88
-0.193213 -0.193892 0.609278 156 145 170
-0.236582 -0.164329 0.647228 84 74 98
-0.224922 -0.211838 0.628696 172 159 188
-0.136018 -0.258959 0.654457 93 78 90
-0.122106 -0.322505 0.634957 104 108 124
-0.10816 -0.230609 0.663878 130 114 128
-0.220252 -0.167055 0.634545 180 188 228
-0.170719 -0.280971 0.598578 105 106 124
-0.210137 -0.16583 0.612892 122 127 169
-0.335107 -0.213308 0.641097 87 82 55
-0.179117 -0.288332 0.599977 120 124 144
-0.205486 -0.165929 0.624266 155 148 192
-0.211918 -0.173261 0.57207 180 180 223
-0.190498 -0.287393 0.606172 110 113 136
-0.214247 -0.157964 0.612328 154 163 206
-0.325385 -0.240864 0.647113 89 94 88
-0.215384 -0.155777 0.604709 160 170 212
-0.0424676 -0.349111 0.823716 102 105 122
-0.262625 -0.173247 0.638042 137 142 170
-0.21254 -0.292188 0.647757 104 112 144
-0.111709 -0.200863 0.652498 117 130 160
-0.299708 -0.236996 0.615735 91 91 96
-0.215208 -0.163959 0.580193 194 202 242
-0.321268 -0.194347 0.636316 192 166 83
-0.325467 -0.172198 0.64209 222 210 140
-0.21307 -0.296151 0.655294 128 130 152
-0.317265 -0.237823 0.646023 112 106 110
-0.211827 -0.163656 0.629454 170 175 219
-0.321286 -0.181237 0.630391 208 176 74
-0.304711 -0.190972 0.648233 24 2 0
-0.212957 -0.159503 0.637742 148 155 202
-0.316891 -0.193166 0.639039 144 112 39
-0.112735 -0.191773 0.614761 124 128 158
-0.334857 -0.20073 0.640305 190 174 154
-0.269397 -0.197717 0.634215 90 96 119
-0.211262 -0.292153 0.628978 118 121 143
-0.131384 -0.253406 0.666197 110 111 130
-0.304786 -0.169344 0.65157 74 58 44
-0.227193 -0.270617 0.612987 169 172 214
-0.216638 -0.293802 0.627518 115 118 138
-0.120516 -0.262421 0.663009 97 96 108
-0.33344 -0.216177 0.636828 78 80 63
-0.103515 -0.186299 0.641361 122 135 166
-0.209724 -0.15921 0.620486 150 154 198
-0.330113 -0.196649 0.63803 196 176 96
-0.210766 -0.158013 0.616613 152 164 206
-0.210054 -0.269735 0.598536 96 128 189
-0.202286 -0.169157 0.61779 212 221 250
-0.224426 -0.182427 0.62454 196 200 239
-0.205693 -0.17277 0.618105 215 224 252
-0.21124 -0.223236 0.629972 210 209 250
-0.335484 -0.207897 0.637638 174 141 80
-0.214424 -0.270277 0.601858 206 208 249
-0.204374 -0.154902 0.583714 106 108 142
-0.213608 -0.259837 0.599668 116 167 229
-0.303489 -0.209047 0.646919 104 84 38
-0.221966 -0.161906 0.65274 106 104 133
-0.210861 -0.29012 0.621881 122 122 150
-0.328321 -0.171738 0.646954 217 211 150
-0.234745 -0.204892 0.640636 156 158 196
-0.209791 -0.168328 0.571157 194 198 240
-0.22375 -0.167079 0.639239 180 188 232
-0.326076 -0.201327 0.627051 173 140 74
-0.139289 -0.133417 0.587299 102 108 139
-0.233233 -0.24174 0.614266 188 194 236
-0.329853 -0.175106 0.645562 222 206 112
-0.301943 -0.194726 0.646877 124 90 22
-0.0956125 -0.182998 0.644448 130 139 172
-0.106771 -0.190367 0.640802 112 122 154
-0.0960891 -0.190003 0.645599 192 194 238
-0.325125 -0.231721 0.64267 206 189 104
-0.176217 -0.283044 0.595634 124 120 144
-0.215824 -0.189844 0.621985 200 194 236
-0.204593 -0.185746 0.616517 198 199 240
-0.325798 -0.200545 0.62848 168 136 70
-0.213859 -0.259771 0.598757 112 174 242
-0.333093 -0.218197 0.636219 78 79 54
-0.321569 -0.324816 0.540046 92 92 104
-0.193722 -0.259873 0.594584 145 139 166
-0.17944 -0.173998 0.616645 92 87 101
-0.312457 -0.228009 0.627617 121 110 97
-0.267454 -0.180192 0.6376 115 118 148
-0.204163 -0.24713 0.594809 132 123 144
-0.332477 -0.199871 0.634318 188 166 102
-0.334798 -0.218155 0.639879 66 70 88
-0.183334 -0.16889 0.613519 96 90 106
-0.336571 -0.186175 0.653701 220 200 106
-0.201684 -0.171027 0.571336 94 89 108
-0.232708 -0.209637 0.638101 178 180 222
-0.332995 -0.220175 0.639773 110 108 89
-0.30044 -0.184815 0.660823 86 77 62
-0.243802 -0.183962 0.659309 80 75 88
-0.336055 -0.210446 0.628462 168 159 110
-0.203524 -0.257794 0.596171 102 142 210
-0.339512 -0.182083 0.657549 186 160 75
-0.332635 -0.174877 0.649262 198 185 93
-0.174181 -0.286164 0.597573 100 101 119
-0.304442 -0.210931 0.644969 96 64 10
-0.215378 -0.199709 0.617146 192 194 234
-0.327527 -0.187252 0.643504 224 205 109
-0.183058 -0.244395 0.608777 118 107 123
0.167181 0.772054 1.46338 108 114 144
-0.195736 -0.188961 0.60928 162 155 188
-0.237168 -0.191066 0.63981 176 170 208
-0.116885 -0.266561 0.675746 94 94 108
-0.122859 -0.245626 0.667511 100 104 128
-0.219071 -0.163121 0.636653 163 170 216
-0.231072 -0.236869 0.616163 161 168 209
-0.2318 -0.290737 0.510733 103 104 120
-0.113761 -0.236953 0.661025 97 80 96
-0.209313 -0.218622 0.620242 203 196 236
-0.23957 -0.244798 0.628027 140 146 178
-0.25276 -0.238606 0.617742 132 142 166
-0.110949 -0.231238 0.656937 128 110 128
-0.306005 -0.195975 0.653002 73 47 26
-0.301412 -0.175435 0.658149 76 62 56
-0.337698 -0.187813 0.65748 132 121 69
-0.336105 -0.209846 0.637269 130 126 111
-0.318551 -0.228414 0.647534 102 90 76
-0.169978 -0.272413 0.609972 102 98 112
-0.216662 -0.169124 0.599296 148 160 206
-0.190045 -0.287595 0.605859 110 114 139
-0.298037 -0.234457 0.638937 120 128 129
-0.2048 -0.169255 0.613046 186 192 239
-0.141732 -0.269995 0.638765 100 100 114
-0.306903 -0.19351 0.655581 70 38 12
-0.306254 -0.233989 0.621734 100 106 118
-0.301764 -0.221543 0.638758 111 80 16
-0.326836 -0.227654 0.64721 163 154 111
-0.31792 -0.247446 0.648197 110 114 140
-0.198806 -0.289784 0.613442 104 110 132
-0.228873 -0.231123 0.625697 148 160 192
-0.17977 -0.263408 0.60213 105 92 109
-0.108947 -0.186937 0.625978 125 127 153
-0.30085 -0.185272 0.656438 86 80 76
-0.272319 -0.196278 0.634341 107 114 142
-0.217967 -0.168213 0.593147 148 160 207
-0.332738 -0.199215 0.637538 154 142 134
-0.304763 -0.190194 0.650873 18 0 0
-0.332378 -0.211782 0.634526 120 117 68
-0.270055 -0.197196 0.633791 120 128 156
-0.320966 -0.182035 0.627325 195 169 74
-0.223308 -0.164626 0.637847 134 142 184
-0.20801 -0.170187 0.609959 150 148 196
-0.322669 -0.229167 0.641942 167 145 73
-0.203706 -0.164543 0.571998 146 152 194
-0.303808 -0.187166 0.652421 70 51 21
-0.322175 -0.214886 0.62682 136 134 98
-0.182008 -0.288182 0.600458 124 129 160
-0.216493 -0.157691 0.588206 164 172 212
-0.263806 -0.19109 0.627966 117 100 122
-0.323653 -0.236093 0.641746 198 182 110
-0.213884 -0.155616 0.588709 168 174 221
-0.115597 -0.202341 0.643391 122 134 168
-0.217074 -0.165305 0.589218 183 196 242
-0.138253 -0.273594 0.658158 116 118 136
-0.306085 -0.224083 0.625293 90 78 45
-0.317732 -0.193471 0.638066 144 116 38
-0.204562 -0.246281 0.595367 130 122 144
-0.18806 -0.245184 0.600238 119 110 129
-0.176941 -0.268019 0.596172 100 90 104
-0.299849 -0.226703 0.634623 142 119 46
-0.22745 -0.201379 0.629528 173 171 210
-0.231723 -0.174887 0.648053 114 100 120
-0.229429 -0.172372 0.639533 130 128 152
-0.126444 -0.256894 0.63926 98 98 118
-0.111701 -0.193807 0.627243 180 186 234
-0.233718 -0.169721 0.646944 85 75 99
-0.2156 -0.218257 0.627263 191 198 242
-0.323829 -0.17074 0.632314 184 177 138
-0.319539 -0.210001 0.626832 172 164 113
-0.193647 -0.259835 0.594577 148 142 174
-0.146482 -0.261407 0.639632 82 72 84
-0.339244 -0.17688 0.658652 146 132 70
-0.147189 -0.27532 0.655243 76 75 88
-0.20565 -0.173638 0.566092 138 138 164
-0.201923 -0.291668 0.619252 116 120 146
-0.304702 -0.184661 0.645026 20 7 2
-0.189654 -0.242094 0.601469 130 122 142
-0.183322 -0.269926 0.595476 130 118 141
-0.218761 -0.296618 0.653967 114 120 147
-0.299834 -0.236882 0.6176 102 112 132
-0.224418 -0.178543 0.626915 202 215 252
-0.262399 -0.173261 0.637948 170 178 210
-0.21823 -0.223196 0.641041 167 167 214
-0.240227 -0.196849 0.654493 92 99 126
-0.137773 -0.273285 0.656583 110 108 124
-0.178787 -0.288955 0.601346 116 120 142
-0.180838 -0.269404 0.595165 117 108 130
-0.180141 -0.282448 0.592461 144 139 172
-0.318564 -0.168813 0.633353 87 59 22
-0.234055 -0.190607 0.639924 188 185 228
-0.192071 -0.223069 0.616228 118 103 120
-0.223271 -0.241249 0.606281 182 189 233
-0.316018 -0.18416 0.637407 166 139 62
-0.179002 -0.288897 0.598313 120 124 149
-0.16871 -0.291441 0.602605 113 118 140
-0.130243 -0.386721 0.701649 92 94 109
-0.244113 -0.370713 0.637007 90 90 104
-0.136128 -0.258604 0.667358 112 116 136
-0.32681 -0.234188 0.646497 149 143 128
-0.26921 -0.189901 0.626529 199 198 230
-0.319963 -0.198157 0.633106 120 86 45
-0.189755 -0.290425 0.604663 113 118 140
-0.176996 -0.283039 0.593264 127 122 145
-0.308022 -0.19754 0.650629 94 75 44
-0.216097 -0.209591 0.610202 189 190 236
-0.295222 -0.222172 0.634912 104 94 84
-0.328784 -0.226776 0.645055 116 112 113
-0.198826 -0.170605 0.608537 164 154 194
-0.235832 -0.190123 0.643597 175 172 212
-0.207978 -0.210178 0.621868 185 188 228
-0.210996 -0.169665 0.570685 189 192 240
-0.171527 -0.194418 0.641441 92 96 112
-0.317515 -0.195379 0.63079 154 126 46
-0.319207 -0.211712 0.625034 164 155 102
-0.307771 -0.175692 0.631664 112 84 26
-0.202164 -0.227056 0.618062 126 116 148
-0.339631 -0.182675 0.658174 187 158 68
-0.305002 -0.209469 0.646344 88 58 4
-0.131694 -0.144581 0.643323 78 75 90
-0.333408 -0.218452 0.63502 110 124 152
-0.327679 -0.173838 0.641233 215 208 145
-0.221694 -0.275584 0.611751 172 179 225
-0.193131 -0.293288 0.61499 112 118 140
-0.24226 -0.182796 0.645283 104 84 102
-0.242662 -0.18332 0.645385 102 86 104
-0.186355 -0.287489 0.603639 127 132 166
-0.306182 -0.182194 0.645215 108 82 24
-0.293549 -0.169129 0.649896 78 73 84
-0.219307 -0.218476 0.64075 160 156 196
-0.210698 -0.175129 0.621797 194 200 246
-0.326003 -0.202177 0.628846 170 138 75
-0.331331 -0.197768 0.637469 173 163 121
-0.332661 -0.220718 0.640407 124 124 109
-0.30214 -0.194315 0.644917 118 90 30
-0.32989 -0.189093 0.646226 209 192 101
-0.324487 -0.242234 0.645819 28 34 44
-0.226653 -0.213213 0.619707 152 141 173
-0.31324 -0.227427 0.639053 114 110 93
-0.306513 -0.200924 0.649391 97 68 28
-0.233783 -0.206607 0.630941 186 191 234
-0.244649 -0.186984 0.650248 79 76 90
-0.33267 -0.222174 0.641961 86 84 93
-0.315781 -0.222194 0.632711 162 138 64
-0.306913 -0.225621 0.621657 118 108 55
-0.305512 -0.228355 0.619151 10 12 22
-0.254881 -0.192907 0.633099 122 110 134
-0.266625 -0.180786 0.631232 112 114 140
-0.111764 -0.221067 0.658849 115 114 139
-0.188032 -0.163143 0.611719 88 86 105
-0.256511 -0.16821 0.639714 159 162 202
-0.213983 -0.259156 0.59975 44 106 181
-0.192754 -0.1964 0.610934 126 111 131
-0.304545 -0.224034 0.625047 86 76 52
-0.300423 -0.184321 0.655206 78 71 64
-0.221699 -0.192751 0.624538 208 211 252
-0.31615 -0.184022 0.636899 168 140 63
-0.339189 -0.183508 0.656279 174 144 49
-0.313272 -0.226144 0.627963 150 132 70
-0.210542 -0.197971 0.608026 190 196 240
-0.119176 -0.245125 0.660348 88 74 92
-0.231616 -0.174078 0.649496 100 88 110
-0.199861 -0.222259 0.616932 175 170 211
-0.1871 -0.287889 0.603609 122 128 164
-0.229068 -0.207395 0.62817 158 154 190
-0.130856 -0.254579 0.660179 75 61 78
-0.317686 -0.176111 0.626393 184 164 90
-0.10562 -0.208986 0.630329 152 148 186
-0.300808 -0.234569 0.63575 134 133 137
-0.113856 -0.206276 0.631276 189 190 239
-0.321309 -0.249492 0.646775 83 90 108
-0.191434 -0.288203 0.608623 102 106 129
-0.262447 -0.18865 0.625013 152 146 175
-0.127031 -0.26639 0.658751 88 86 102
-0.315549 -0.184762 0.637548 144 115 41
-0.119834 -0.266335 0.652267 121 128 154
-0.191873 -0.277727 0.595583 149 146 181
-0.224376 -0.24652 0.604185 182 188 232
-0.218799 -0.243938 0.598712 178 179 224
-0.240146 -0.276819 0.413023 88 91 106
-0.173431 -0.283018 0.600843 120 113 130
-0.312001 -0.218915 0.626701 155 128 62
-0.324057 -0.186148 0.635749 220 204 118
-0.250296 -0.165094 0.641189 152 154 195
-0.191308 -0.28508 0.608932 122 118 150
-0.211941 -0.248032 0.594977 145 142 179
-0.225408 -0.298724 0.86545 116 124 147
-0.234216 -0.367447 0.669204 91 93 108
0.087138 -0.453361 1.0498 97 100 117
-0.218561 -0.162482 0.638546 158 168 218
-0.307072 -0.199269 0.644236 92 74 44
0.0169028 -0.370052 0.931077 104 109 129
-0.240255 -0.19501 0.65898 110 115 144
-0.299975 -0.236356 0.621335 126 135 157
-0.299123 -0.21729 0.635498 136 106 43
-0.30175 -0.226657 0.625214 110 96 78
-0.238142 -0.182768 0.645751 122 102 124
-0.118944 -0.263212 0.665811 99 102 122
-0.331896 -0.222037 0.639633 100 96 86
-0.219433 -0.196036 0.619731 202 202 244
-0.313795 -0.183705 0.636711 152 122 48
-0.119991 -0.267519 0.660665 115 124 149
-0.126947 -0.267969 0.662458 108 108 125
-0.320261 -0.254824 0.650273 119 126 150
-0.333658 -0.218112 0.640527 57 60 68
-0.327633 -0.195587 0.637985 196 180 109
-0.301645 -0.174835 0.659344 72 59 54
-0.303264 -0.174268 0.65603 52 36 6
-0.196489 -0.272793 0.434382 102 104 123
-0.133846 -0.2559 0.667173 106 112 134
-0.317605 -0.179 0.628709 138 105 26
-0.262124 -0.189252 0.62416 142 135 162
-0.116345 -0.19925 0.638311 124 137 172
-0.107879 -0.198491 0.621047 163 164 208
-0.322963 -0.246765 0.646926 56 62 80
-0.320267 -0.181115 0.635356 201 174 82
-0.214446 -0.199241 0.611573 194 202 242
-0.335253 -0.210312 0.636014 156 158 128
-0.110422 -0.189781 0.623655 131 135 175
-0.256778 -0.196883 0.636544 103 108 132
-0.235213 -0.239563 0.617272 142 157 190
-0.272953 -0.188759 0.628689 80 80 97
-0.253469 -0.194269 0.638209 100 98 120
-0.207653 -0.194458 0.611146 194 198 239
-0.319331 -0.198646 0.631491 128 86 48
-0.303896 -0.171207 0.653383 66 55 42
-0.320713 -0.19354 0.638925 186 162 84
-0.244227 -0.166798 0.641323 147 142 174
-0.226355 -0.23005 0.624257 136 146 176
-0.258491 -0.193924 0.630922 144 133 157
-0.251168 -0.166602 0.637633 158 158 193
-0.159458 -0.260591 0.654631 110 112 133
-0.242876 -0.183677 0.644235 82 62 78
-0.331819 -0.190367 0.64982 215 196 110
-0.149212 -0.139951 0.576912 102 112 144
-0.0176842 -0.149639 0.785708 108 118 144
-0.273643 -0.191286 0.630276 101 108 134
-0.324817 -0.242081 0.646715 68 72 90
-0.163722 -0.258615 0.642421 108 106 124
-0.204915 -0.165418 0.571262 153 160 198
-0.205353 -0.189685 0.615119 183 178 220
-0.318989 -0.193824 0.637791 160 131 55
-0.113286 -0.22736 0.661339 114 119 143
-0.189681 -0.19744 0.614408 130 118 136
-0.141153 -0.302728 0.569901 102 107 126
-0.209976 -0.290504 0.624018 120 126 158
-0.103224 -0.249528 0.597114 122 136 164
-0.323699 -0.253698 0.641143 120 130 156
-0.182485 -0.291148 0.600131 109 116 137
-0.13194 -0.144518 0.643 76 75 90
-0.110062 -0.20025 0.635514 178 186 234
-0.214498 -0.214935 0.623287 206 210 252
-0.257784 -0.169758 0.639206 162 171 210
-0.115587 -0.255294 0.65809 108 114 132
-0.107577 -0.189841 0.616698 116 116 138
-0.30784 -0.233058 0.62512 62 61 61
-0.153123 -0.276275 0.658587 91 94 110
-0.171928 -0.184008 0.636098 84 83 96
-0.223889 -0.186997 0.619769 203 215 253
-0.197315 -0.178179 0.600333 190 186 226
-0.199491 -0.173464 0.595035 138 129 156
-0.114261 -0.258902 0.668908 100 98 118
-0.317025 -0.175261 0.62964 120 88 21
-0.333147 -0.199487 0.63767 110 106 106
-0.163907 -0.239555 0.660317 112 116 134
-0.104916 -0.195722 0.617504 124 120 146
-0.207214 -0.178789 0.571479 113 109 132
-0.334889 -0.217054 0.641833 169 174 195
-0.159342 -0.21931 0.673626 120 126 150
-0.199907 -0.20042 0.610129 112 92 110
-0.099924 -0.237079 0.666795 109 112 127
-0.199164 -0.172891 0.590557 108 100 118
-0.192675 -0.1638 0.599974 100 100 121
-0.206628 -0.213919 0.617329 195 199 240
-0.232907 -0.266757 0.622901 145 154 192
-0.193959 -0.257786 0.593896 132 124 153
-0.172956 -0.143362 0.706131 62 61 75
-0.323525 -0.19877 0.621971 142 138 118
-0.100563 -0.184027 0.639294 98 98 117
-0.173961 -0.214041 0.678731 112 125 154
-0.167048 -0.189339 0.713832 103 110 130
-0.297433 -0.203161 0.633727 73 57 26
-0.232211 -0.214323 0.63531 102 110 132
-0.103578 -0.212941 0.653803 138 130 158
-0.31919 -0.204444 0.612211 102 100 97
-0.284951 -0.224141 0.612553 108 96 76
-0.300416 -0.180214 0.649475 60 40 14
-0.22261 -0.225946 0.648878 150 155 192
-0.305168 -0.235863 0.62367 112 108 112
-0.301726 -0.226909 0.638996 156 143 90
-0.172049 -0.270547 0.602294 101 97 112
-0.240044 -0.197548 0.657521 118 124 158
-0.317377 -0.218798 0.60973 108 106 90
-0.174619 -0.226366 0.65487 108 112 136
-0.240997 -0.202123 0.657545 114 121 150
-0.182826 -0.22763 0.649682 106 104 123
-0.305401 -0.22299 0.611626 164 142 74
-0.172538 -0.160937 0.687023 87 85 99
-0.0996286 -0.211773 0.647611 125 119 141
-0.333894 -0.217095 0.639285 152 154 153
-0.227745 -0.157102 0.662018 161 165 204
-0.295732 -0.224503 0.619296 85 81 80
-0.100287 -0.181194 0.691116 120 130 162
-0.291722 -0.237755 0.601175 96 100 121
-0.17707 -0.234804 0.634063 106 105 120
-0.181993 -0.21885 0.653971 114 118 138
-0.17276 -0.145486 0.705984 98 96 110
-0.327675 -0.226541 0.640014 103 102 99
-0.296793 -0.22747 0.615408 102 91 66
-0.21454 -0.28382 0.602349 131 138 176
-0.305315 -0.187163 0.603613 214 190 106
-0.213335 -0.123246 0.661196 126 136 174
-0.300773 -0.211232 0.638606 89 60 37
-0.180475 -0.149206 0.680913 26 24 39
-0.297737 -0.217793 0.63031 98 90 96
-0.209963 -0.157078 0.651563 177 182 217
-0.270847 -0.180015 0.638719 152 156 184
-0.268817 -0.186998 0.622451 103 105 124
-0.273751 -0.186289 0.632625 86 80 93
-0.30726 -0.226223 0.594707 94 91 91
-0.209885 -0.210343 0.615666 184 187 227
-0.206197 -0.167835 0.605721 112 110 130
-0.175308 -0.156779 0.683435 63 60 76
-0.210747 -0.236622 0.59833 128 124 149
-0.278053 -0.192721 0.649555 120 128 153
-0.318958 -0.186151 0.620897 192 176 108
-0.169708 -0.148237 0.967616 90 78 94
-0.112072 -0.209171 0.660821 120 128 162
-0.312756 -0.199434 0.614428 200 181 109
-0.250268 -0.162934 0.646462 160 162 206
-0.101177 -0.366829 0.830993 102 108 127
-0.292417 -0.307702 0.563682 98 101 118
-0.136709 -0.254171 0.661017 114 124 150
-0.19643 -0.138586 0.669778 100 100 118
-0.164158 -0.27048 0.620666 97 94 106
-0.262038 -0.193929 0.640775 146 146 171
-0.296791 -0.23005 0.616804 107 109 126
-0.0995042 -0.242532 0.679527 115 116 134
-0.0829548 -0.194739 0.705158 152 150 187
-0.126019 -0.268165 0.667581 108 107 122
-0.123094 -0.242774 0.650496 112 116 139
-0.275436 -0.18896 0.634415 64 64 82
-0.111393 -0.198909 0.664166 130 144 178
-0.180948 -0.214171 0.672202 105 106 126
-0.207536 -0.183456 0.625059 197 204 243
-0.208333 -0.179989 0.613051 201 208 246
-0.199031 -0.162433 0.621756 104 90 107
-0.213026 -0.125088 0.68959 92 88 106
-0.233935 -0.202522 0.645436 171 175 215
-0.175682 -0.147121 0.692548 62 60 74
-0.168348 -0.25237 0.645893 98 93 106
-0.114965 -0.231653 0.662871 114 117 144
-0.239656 -0.159809 0.672925 75 66 90
-0.191124 -0.277314 0.595513 155 154 192
-0.238067 -0.245673 0.620483 130 139 170
-0.218728 -0.296268 0.653737 114 121 148
-0.260886 -0.186343 0.625259 147 141 167
-0.094194 -0.43211 1.10519 102 106 124
-0.276389 0.150849 0.99673 112 122 154
-0.305501 -0.198873 0.873843 114 126 151
-0.0522093 -0.423168 0.767019 85 87 101
-0.198473 -0.254685 0.596029 151 153 192
-0.183551 -0.230587 0.628544 108 104 122
-0.323388 -0.173386 0.63128 188 180 144
-0.123485 -0.120077 0.682722 74 72 90
-0.298221 -0.203921 0.628832 94 73 52
-0.206876 -0.12944 0.647788 84 86 107
-0.304923 -0.228299 0.657554 113 103 98
-0.161992 -0.228912 0.640483 108 113 134
-0.213939 -0.212338 0.616827 208 214 252
-0.170216 -0.152765 0.679414 86 84 98
-0.167786 -0.268205 0.593684 90 93 106
-0.177273 -0.155181 0.680268 69 66 80
-0.171041 -0.165964 0.684716 82 80 94
-0.202094 -0.158423 0.634338 108 96 116
-0.214158 -0.26167 0.592721 79 144 226
-0.216591 -0.140695 0.628864 172 180 223
-0.202342 -0.194181 0.643192 110 94 107
-0.228838 -0.14126 0.643812 158 168 214
-0.207484 -0.26234 0.58066 93 120 186
-0.189894 -0.285759 0.592635 107 113 134
-0.232476 -0.142083 0.656544 156 164 209
-0.278924 -0.224575 0.588767 110 88 53
-0.278995 -0.236727 0.577433 112 113 133
-0.170889 -0.260085 0.58638 88 79 92
-0.0913234 -0.182072 0.65784 90 90 110
-0.304654 -0.215848 0.647148 118 98 69
-0.170472 -0.209601 0.645217 72 58 73
-0.266185 -0.154589 0.680865 154 155 192
-0.252955 -0.171885 0.647166 136 128 156
-0.21852 -0.266642 0.562206 141 152 186
-0.246124 -0.174062 0.673097 116 93 114
-0.179954 -0.161781 0.664714 103 99 114
-0.236043 -0.251461 0.612869 147 154 190
-0.332211 -0.333447 0.657839 92 94 108
-0.179273 0.111165 0.974381 112 122 156
-0.332821 -0.173763 0.651642 180 174 98
-0.175919 -0.287774 0.598819 99 104 124
-0.284913 -0.012473 0.732093 115 124 156
-0.227134 -0.240147 0.608875 167 172 217
-0.332897 -0.217899 0.63834 82 86 69
-0.198843 -0.163143 0.573373 90 89 108
-0.102139 -0.232475 0.659111 108 110 128
-0.334699 -0.175566 0.655282 197 188 112
-0.213783 -0.218387 0.628201 196 200 242
-0.208037 -0.241673 0.596902 132 128 152
-0.212878 -0.164276 0.580137 179 190 238
-0.311997 -0.228814 0.626266 106 105 93
-0.222729 -0.293034 0.660527 114 122 150
-0.263744 -0.173775 0.640841 114 123 155
-0.227054 -0.277215 0.629451 152 168 216
-0.319081 -0.230287 0.638572 114 82 14
-0.314601 -0.223425 0.625165 157 136 62
-0.200072 -0.216153 0.611059 176 174 218
-0.303159 -0.223977 0.636812 116 96 46
-0.236065 -0.256584 0.633494 96 120 170
-0.122227 -0.266242 0.655661 118 128 152
-0.231985 -0.276084 0.620919 146 168 214
-0.220226 -0.289435 0.62833 137 150 188
-0.323176 -0.253703 0.643622 116 124 150
-0.307201 -0.191948 0.647277 98 70 11
-0.200915 -0.176255 0.585929 102 99 118
-0.209636 -0.267229 0.598267 8 89 168
-0.19334 -0.170767 0.603064 92 89 108
-0.233301 -0.205866 0.655219 98 104 134
-0.201804 -0.171429 0.570654 100 98 116
-0.242063 -0.190967 0.649862 134 130 160
-0.205188 -0.255305 0.594624 91 130 203
-0.217326 -0.20464 0.626855 195 195 239
-0.222439 -0.286047 0.663001 126 136 171
-0.208698 -0.150288 0.612132 174 183 230
-0.205758 -0.168872 0.614611 152 164 210
-0.318967 -0.181868 0.624052 166 140 56
-0.210487 -0.176375 0.573586 100 104 134
-0.335981 -0.190911 0.654981 140 128 84
-0.336056 -0.181945 0.656508 220 202 108
-0.211263 -0.28542 0.610932 148 150 190
-0.204095 -0.173899 0.570664 97 94 115
-0.332151 -0.199275 0.634979 190 176 107
-0.228465 -0.27319 0.655072 120 131 164
-0.230651 -0.267342 0.644082 78 126 201
-0.268283 -0.194494 0.645553 84 91 118
-0.261418 -0.198782 0.634293 92 97 119
-0.317011 -0.179392 0.622895 141 114 46
-0.203277 -0.290886 0.619829 106 109 138
-0.269599 -0.196411 0.632764 152 158 192
-0.21069 -0.152402 0.590887 145 156 200
-0.203493 -0.16256 0.571057 98 104 137
-0.217112 -0.168498 0.589044 189 203 248
-0.236321 -0.197197 0.664034 81 88 116
-0.204016 -0.247117 0.595587 134 130 155
-0.213981 -0.153948 0.594106 165 163 200
-0.195365 -0.189112 0.609906 156 150 186
-0.229352 -0.237031 0.647364 132 146 178
-0.325796 -0.201482 0.629192 161 126 64
-0.321692 -0.180151 0.628183 204 188 92
-0.222346 -0.214563 0.636111 142 125 156
-0.211301 -0.178389 0.581892 130 136 172
-0.220008 -0.195432 0.623093 202 201 246
-0.336474 -0.213689 0.643482 118 59 46
-0.229737 -0.271724 0.633153 96 136 214
-0.264207 -0.19213 0.628435 114 98 122
-0.185274 -0.290681 0.601205 108 116 136
-0.200975 -0.288292 0.594418 108 116 137
-0.0852941 -0.191669 0.644497 112 120 152
-0.331048 -0.177961 0.646731 212 200 110
-0.220306 -0.209205 0.631697 156 150 186
-0.205418 -0.267337 0.595654 138 185 251
-0.0937801 -0.194104 0.646446 176 178 222
-0.125021 -0.140529 0.634845 65 64 81
-0.180845 -0.237445 0.61173 110 118 146
-0.320893 -0.181886 0.625414 190 170 84
-0.339601 -0.184505 0.666848 96 72 30
-0.208974 -0.264115 0.597328 75 136 210
-0.0929512 -0.18508 0.655354 95 106 138
-0.215214 -0.165042 0.5759 167 178 226
-0.213972 -0.220763 0.62566 197 202 245
-0.323585 -0.170817 0.635774 200 192 120
-0.183342 -0.254225 0.599215 105 102 121
-0.272621 -0.193146 0.638461 104 107 132
-0.225077 -0.175863 0.626357 178 192 235
-0.16407 -0.26807 0.616852 103 100 120
-0.118142 -0.142809 0.654919 76 76 92
-0.221345 -0.206786 0.63095 165 152 190
-0.219594 -0.224188 0.645991 158 159 206
-0.254379 -0.194781 0.637881 90 90 108
-0.221779 -0.228479 0.644395 130 143 178
-0.170158 -0.282422 0.599966 101 106 126
-0.184174 -0.266475 0.599339 116 108 128
-0.1891 -0.197529 0.615921 120 112 128
-0.232766 -0.223097 0.635301 128 141 178
-0.273466 -0.196028 0.63382 82 85 109
-0.238996 -0.203866 0.642803 150 150 192
-0.142188 -0.151597 0.635551 76 74 88
-0.218162 -0.201033 0.627358 197 196 240
-0.246406 -0.282317 0.515052 107 114 135
-0.137511 -0.148422 0.642989 74 72 86
-0.293362 -0.169514 0.648567 74 70 84
-0.198619 -0.170693 0.60945 154 148 188
-0.218103 -0.220391 0.642586 146 143 190
-0.20281 -0.249202 0.595718 148 145 172
-0.211239 -0.291926 0.630699 114 122 148
-0.21872 -0.253011 0.599282 50 110 194
-0.207754 -0.152464 0.620985 116 127 172
-0.189286 -0.190543 0.615695 151 142 174
-0.210288 -0.263926 0.595785 92 154 226
-0.208455 -0.147979 0.605102 152 162 202
-0.175755 -0.196221 0.6298 96 98 114
-0.332222 -0.176267 0.647325 206 195 106
-0.232077 -0.21245 0.633216 154 161 206
-0.217806 -0.150325 0.608137 120 133 178
-0.324312 -0.171938 0.632505 198 188 120
-0.21226 -0.162807 0.632653 174 188 239
-0.301142 -0.234942 0.63562 127 132 116
-0.305648 -0.201345 0.641304 102 73 14
-0.269895 -0.190806 0.646131 85 88 108
-0.180452 -0.279478 0.590693 112 114 140
-0.220507 -0.170136 0.632237 164 179 226
-0.224163 -0.174913 0.627951 174 188 234
-0.27227 -0.190366 0.640454 100 103 124
-0.304141 -0.189463 0.650438 74 52 16
-0.18683 -0.172849 0.604919 79 76 92
-0.220555 -0.226722 0.651313 120 136 166
-0.198637 -0.169948 0.609099 140 138 182
-0.189755 -0.286661 0.608206 112 118 146
-0.210825 -0.259155 0.597728 47 104 188
-0.207351 -0.177045 0.617353 180 190 234
-0.233215 -0.172957 0.647427 46 37 58
-0.2382 -0.169757 0.640879 92 86 115
-0.206864 -0.1548 0.621773 118 131 180
-0.235775 -0.188067 0.645946 154 147 183
-0.254467 -0.174101 0.635122 132 136 174
-0.236894 -0.157679 0.618201 100 110 152
-0.229437 -0.174414 0.647862 116 104 131
-0.198858 -0.17344 0.584026 91 89 108
-0.166561 -0.269322 0.612556 114 118 144
-0.171601 -0.239673 0.619826 104 103 126
-0.31485 -0.227628 0.643653 96 92 96
-0.212811 -0.202196 0.607273 166 174 219
-0.230017 -0.232956 0.628397 134 144 182
-0.314903 -0.224815 0.629229 138 116 53
-0.220456 -0.213301 0.639444 130 116 144
-0.0294678 -0.149814 0.759767 67 66 80
-0.163158 -0.292169 0.618844 106 114 135
-0.298277 -0.188595 0.649261 70 66 74
-0.0932266 -0.220905 0.655614 96 101 121
-0.250455 -0.192005 0.641458 102 88 106
-0.272254 -0.193014 0.636874 170 186 226
-0.232741 -0.204778 0.645235 152 158 204
-0.198628 -0.160533 0.624086 183 194 245
-0.220415 -0.18079 0.630355 166 174 221
-0.234775 -0.195629 0.660128 176 181 228
-0.0589746 -0.175821 0.663409 118 126 152
-0.199865 -0.164707 0.572102 116 116 143
-0.0882642 -0.196542 0.661841 166 166 208
-0.211953 -0.199923 0.617135 186 193 240
-0.211278 -0.205196 0.622069 153 150 196
-0.298945 -0.235653 0.634671 120 124 139
-0.199602 -0.194087 0.614974 124 108 134
-0.215699 -0.16972 0.581796 164 169 215
-0.217833 -0.224857 0.644412 146 148 198
-0.214014 -0.171397 0.581996 163 170 216
-0.233254 -0.188221 0.642313 160 164 212
0.00964622 -0.130501 0.769113 87 86 103
-0.209459 -0.161654 0.628866 112 120 161
-0.166538 -0.29582 0.65404 108 114 140
-0.20545 -0.293556 0.620078 110 116 140
-0.126374 -0.142604 0.646481 79 76 92
-0.231663 -0.205032 0.659325 99 105 134
-0.263218 -0.173123 0.640211 114 127 162
-0.213638 -0.266131 0.600067 98 162 234
-0.1828 -0.291162 0.610153 108 115 141
-0.0985495 -0.185841 0.642635 121 126 166
-0.135416 -0.148351 0.649048 77 74 90
-0.2067 -0.165574 0.618447 100 110 155
-0.269771 -0.190229 0.626858 168 173 218
-0.182612 -0.22496 0.631396 112 109 130
-0.205083 -0.157969 0.580991 112 122 160
-0.222504 -0.221745 0.640338 168 165 211
-0.0795537 -0.228975 0.681195 104 106 128
-0.216335 -0.248434 0.603751 163 168 215
-0.234264 -0.205518 0.643246 148 146 186
-0.164974 -0.281588 0.603952 100 104 126
-0.210314 -0.156029 0.583165 115 127 166
0.267831 -0.447979 1.24873 100 105 125
-0.308948 -0.33704 0.62854 94 96 111
-0.187741 -0.295103 0.626317 106 114 136
-0.233797 -0.171201 0.648388 84 74 98
-0.156614 -0.307108 0.726945 108 113 138
-0.317065 -0.202378 0.627262 108 77 39
-0.317014 -0.20178 0.627875 115 80 43
-0.0905311 -0.363296 0.711874 92 96 114
-0.107707 -0.163459 0.649179 79 78 92
-0.278872 -0.381491 1.31764 110 114 136
0.0461052 -0.428819 0.992915 94 98 116
-0.296509 -0.231021 0.632256 102 98 98
-0.299729 -0.191938 0.641298 80 66 54
-0.212514 -0.159186 0.613937 144 157 202
-0.319481 -0.22687 0.650816 90 74 56
-0.183336 -0.264479 0.584726 97 90 106
-0.184724 -0.272993 0.575219 96 91 107
-0.337938 -0.155331 0.686283 202 194 146
-0.205914 -0.149339 0.594726 135 144 190
-0.190665 -0.164474 0.60301 80 77 95
-0.313624 -0.214346 0.642791 130 104 42
-0.344948 -0.197805 0.670769 194 170 120
-0.198561 -0.285493 0.582872 108 116 139
-0.190912 -0.161999 0.614733 106 102 122
-0.337549 -0.167795 0.668957 182 171 90
-0.209495 -0.288046 0.590713 110 114 142
0.0106491 -0.359701 0.970221 102 108 128
-0.128034 -0.399164 0.832944 95 98 115
-0.164731 -0.345497 0.783832 102 106 126
-0.300751 -0.23467 0.639061 120 120 131
-0.187655 -0.321969 0.576046 96 98 116
-0.318497 -0.232113 0.631267 123 120 107
-0.296313 -0.214353 0.627935 96 69 44
-0.327685 -0.235086 0.62151 92 93 112
-0.219329 -0.157966 0.647629 170 182 226
-0.163497 -0.246 0.719337 104 107 126
-0.229808 -0.265373 0.621919 169 180 226
-0.292492 -0.200728 0.622829 65 38 6
-0.195878 -0.199312 0.614476 105 83 96
-0.289583 -0.219163 0.623706 106 94 60
-0.150012 -0.188353 0.705697 96 102 126
-0.309707 -0.194134 0.612345 209 192 114
-0.230767 -0.151139 0.652319 152 164 208
-0.287701 -0.223858 0.608612 100 79 43
-0.226787 -0.128548 0.654729 172 186 228
-0.293265 -0.204333 0.614645 98 70 8
-0.192431 -0.28082 0.623963 150 148 186
-0.253772 -0.0491556 0.626041 102 111 142
-0.292797 -0.198816 0.623805 61 25 0
-0.289633 -0.199609 0.616648 50 18 2
-0.238217 -0.18026 0.660924 171 174 216
-0.320494 -0.210536 0.629788 175 168 108
-0.235489 -0.198884 0.651415 164 167 210
-0.335474 -0.234705 0.710211 117 124 150
-0.223991 -0.148998 0.619001 162 171 216
-0.22626 -0.20925 0.668126 151 138 174
-0.350957 -0.234403 0.753467 118 124 150
-0.185937 -0.255651 0.380141 90 90 104
-0.22533 -0.182665 0.607644 70 68 86
-0.218141 -0.266061 0.619026 76 118 190
-0.203397 -0.176874 0.577418 107 102 120
-0.298267 -0.221587 0.627642 88 78 70
0.355083 0.224434 2.46849 92 99 119
-0.193977 -0.201245 0.642667 94 76 87
-0.0951809 -0.222391 0.656774 105 112 128
-0.214329 -0.204963 0.645968 179 182 226
-0.218193 -0.280375 0.601086 127 138 172
-0.2628 -0.276757 0.608291 110 116 134
-0.216325 -0.13452 0.646962 152 160 200
-0.324218 -0.250361 0.645076 114 118 138
-0.138465 -0.274953 0.659457 104 104 119
