ply
format ascii 1.0
element vertex 978
property float x
property float y
property float z
property uchar red
property uchar green
property uchar blue
end_header
-14.8541 -4.24951 1.71332 0 255 0
-14.9287 -1.89353 0.523729 0 255 0
-12.1136 -1.66414 -1.50235 0 255 0
-9.69309 -1.46359 -3.2449 0 255 0
-6.37296 -1.24103 -4.89217 0 255 0
-2.80548 -0.737789 -6.30423 0 255 0
0.616699 -0.501825 -7.14616 0 255 0
3.72267 -0.672641 -7.20343 0 255 0
7.50229 -0.540202 -6.74928 0 255 0
8.68346 -0.616212 -6.59087 0 255 0
7.23327 1.72705 -6.48026 0 255 0
4.52857 2.25461 -5.6813 0 255 0
0.569913 1.65471 -5.42935 0 255 0
-3.27557 1.2848 -5.62557 0 255 0
-8.63942 1.41379 -5.08932 0 255 0
11.4896 -12.9198 29.9822 154 156 114
0.0260316 -15.5768 40.2941 167 168 112
-4.77436 -16.729 50.097 214 212 164
0.209093 -12.4859 36.0206 162 160 129
0.713334 -12.0172 36.3761 152 149 112
1.64752 -11.8058 35.6143 162 166 124
8.60019 -11.2556 34.0767 140 141 100
13.9476 -8.43068 22.5508 136 134 98
0.602029 -11.1677 35.3056 169 167 128
-5.8873 -10.2912 30.8236 176 174 131
1.16308 -10.9322 34.6874 138 144 109
1.27575 -9.91279 33.7341 142 148 114
-2.30579 -8.01644 24.1009 172 176 128
-2.18614 -7.9111 23.9827 190 197 152
1.01535 -9.45193 34.2547 180 182 134
-2.13522 -7.48646 23.7545 181 188 147
-4.09128 -8.79564 31.0481 147 146 116
1.18387 -8.71341 33.8048 170 174 128
2.96336 -8.54846 33.2919 190 194 154
2.10831 -8.05175 33.0115 150 160 117
0.0180795 -7.1722 27.7047 143 150 106
5.19668 -7.09309 29.812 163 167 126
1.31135 -7.72912 32.9705 180 181 136
2.61759 -7.50887 31.263 188 192 153
4.81549 -6.77187 28.5963 165 168 121
1.91376 -7.10705 31.9958 152 164 122
-0.657705 -6.25481 25.4374 192 196 156
1.87207 -6.76139 32.0334 148 159 118
1.21034 -6.74873 31.8418 160 161 118
-0.800804 -6.06438 25.6315 163 164 120
2.09895 -6.31573 31.3195 169 176 140
2.48009 -6.11484 30.3724 189 194 146
2.25073 -6.10182 31.3488 160 166 126
4.89742 -5.93778 34.9964 164 164 110
4.66344 -5.4919 33.375 144 146 102
3.03955 -4.54795 30.5471 175 176 127
3.59559 -4.6049 29.6712 180 179 137
6.68599 -4.35933 31.2442 122 130 92
0.722967 -4.73755 29.1976 136 138 94
3.58918 -4.48809 30.8513 174 180 135
4.24851 -3.85393 31.4628 212 216 169
6.50355 -3.71706 31.0903 132 138 104
1.15262 -4.26152 31.6591 162 164 124
1.59869 -3.81466 27.8998 175 176 130
11.6748 -2.52869 29.8941 124 130 89
1.98232 -3.54485 31.6133 152 158 116
2.278 -3.25873 28.673 156 156 108
12.0454 -2.02801 29.5398 150 146 110
2.25011 -2.97228 30.7389 180 182 137
2.5293 -2.57075 28.6128 150 148 96
11.0186 -1.55932 31.0821 116 109 75
12.0534 -1.35825 28.31 222 214 178
10.9298 -1.36695 28.39 145 130 98
2.87182 -2.3354 25.7748 140 142 116
3.18814 -2.26454 28.4378 128 130 88
1.81761 -2.37904 30.4539 124 124 82
1.01182 -2.45457 30.2615 106 112 81
10.2658 -1.06971 27.3564 153 133 100
1.14628 -2.29705 37.0576 148 151 110
11.4824 -1.00867 27.8509 214 194 168
1.24224 -2.24663 28.2066 154 153 106
3.44945 -1.88908 28.5348 156 160 127
9.69368 -0.923426 31.0934 147 144 104
11.4813 -0.634534 27.5725 215 200 172
0.713907 -1.97835 27.3194 158 156 111
1.23309 -1.76636 26.3513 165 168 120
3.44713 -1.40937 27.8836 115 121 102
0.772088 -1.67222 33.7419 164 158 129
8.9386 -0.271374 30.1672 66 68 39
9.61835 -0.148659 26.8301 192 176 146
0.23961 -0.375481 24.7579 132 144 102
8.97102 2.22763 27.6911 205 168 150
6.2222 1.96281 28.136 116 104 87
6.11958 2.08229 26.8417 117 108 92
3.18138 2.51781 33.885 31 24 16
7.05892 2.58973 26.9393 148 140 118
-1.1611 0.756115 23.6359 160 158 129
8.94376 3.28694 27.4093 214 184 172
-2.29663 1.46096 29.6523 136 106 90
5.68963 2.57774 25.9634 90 92 69
4.67488 2.64534 27.7028 54 51 39
-1.37168 1.8599 30.608 116 94 90
5.60596 2.64158 25.5174 86 90 64
-0.974505 1.11006 23.1299 130 138 100
-2.10821 1.83866 30.6376 167 130 108
-1.87728 1.96626 30.3046 164 136 124
-1.20439 2.27511 30.4714 134 101 84
2.67739 2.46382 25.3057 86 66 60
-1.91986 2.36696 30.5943 143 102 80
-1.29152 1.47361 22.7342 125 132 98
5.9384 3.21627 24.5556 94 96 70
-2.1173 2.66943 31.9709 156 109 82
1.85656 2.8127 25.4819 110 73 65
-2.4057 2.62887 30.8279 160 116 90
5.02097 3.4563 26.0248 101 78 60
6.32945 3.35512 23.4337 134 132 104
-6.89643 0.628792 23.3376 116 126 109
-1.59334 3.57226 34.9232 195 176 152
-1.74879 2.8813 30.7456 155 112 92
-7.4272 0.732093 24.1403 162 158 132
-0.556061 2.75242 27.5963 128 92 74
6.15098 3.63975 23.742 78 84 53
-1.53186 2.90754 29.4805 163 123 97
2.56103 3.25068 25.7234 78 40 27
-1.27231 2.98002 28.888 170 128 105
-1.10197 4.14936 35.724 190 168 145
-1.83171 3.24526 30.928 146 106 92
2.52613 3.39149 26.3488 162 134 124
-1.43548 3.83329 33.5359 127 84 64
6.4557 3.80396 22.7973 130 128 101
-7.76502 0.899975 23.8179 150 146 116
-1.40137 3.52101 31.1751 107 70 53
-0.686118 3.17781 27.8778 150 110 84
-0.762382 4.52058 35.9257 126 90 71
-1.01198 3.24333 28.5168 164 114 88
-1.10697 4.55406 36.0706 198 182 158
6.13383 4.58298 26.7278 118 81 80
6.08188 3.9448 23.0676 96 100 72
-1.85856 3.59613 31.124 109 74 59
-1.26755 3.43739 28.9555 154 112 96
-1.2565 4.3311 34.0528 110 67 46
7.59201 5.22296 27.6471 223 206 198
-7.75943 1.11514 23.0342 152 155 141
-0.0849438 3.86586 28.4954 168 146 142
7.31188 5.54044 28.0949 130 98 95
5.20604 4.06623 22.5738 141 138 120
-1.00304 5.07342 35.6125 172 132 109
-0.769499 3.95288 29.0912 110 65 50
-1.1112 5.18944 36.0937 177 150 123
0.476308 3.94688 27.331 107 57 44
-1.74069 2.41814 21.8169 130 138 114
6.02473 4.35113 22.4398 102 101 80
2.71677 4.59638 26.8654 78 49 45
-0.2527 4.27493 28.2878 127 93 89
-1.29126 5.37221 35.0399 168 140 120
0.548356 4.34051 27.4932 194 154 149
-0.869441 5.43575 34.3634 111 64 44
5.87801 4.71171 22.5012 138 134 120
7.24747 6.23868 28.459 112 78 74
0.149278 4.69743 28.9458 108 76 70
-0.612801 5.53299 33.7083 126 90 65
6.70845 4.93081 21.6997 152 147 122
-1.04685 5.90626 35.4781 156 140 118
-0.615418 6.09931 35.6847 174 146 131
5.14426 5.75046 27.31 92 62 58
-0.260107 5.26313 30.526 96 56 43
-0.505475 6.14843 34.3613 124 82 59
7.63059 6.98424 28.9831 203 184 176
-0.787708 5.7155 32.221 130 91 77
-1.85345 3.15209 20.995 157 160 143
7.00976 7.0127 28.7702 134 101 99
-0.572738 6.57357 35.1477 107 62 41
-0.0670181 5.34539 28.5809 106 78 75
-0.574383 6.30602 33.5951 118 75 54
-0.362486 5.55335 29.9655 158 117 104
-8.52339 2.05008 22.7452 154 153 136
-0.643554 7.05704 35.9744 188 166 144
-0.112639 5.92578 30.2749 126 84 70
7.01392 7.3946 29.0209 135 100 98
-0.275503 6.24683 32.147 82 46 30
4.31448 6.47643 27.5767 128 88 84
-0.145048 6.16054 30.9695 102 58 45
7.72766 7.76815 29.341 166 152 146
6.49828 5.57208 20.9765 169 154 125
0.421627 6.04197 29.5221 142 117 115
-0.116817 7.76411 36.4346 154 128 106
-0.0927123 6.84722 31.7186 92 46 32
0.321971 6.84813 30.851 96 50 38
-0.193983 7.67929 34.1676 106 56 36
-0.0849808 7.58012 33.3477 111 72 62
0.870878 7.16012 30.3991 121 78 69
6.90075 8.65265 29.852 122 78 75
-0.034754 7.90973 33.5309 110 72 60
6.65084 6.59783 21.0551 206 182 159
0.233393 9.09895 36.6149 150 123 104
0.750566 7.94229 31.7149 91 44 30
6.89687 7.21316 22.6012 210 201 196
0.303954 9.43712 36.7084 156 130 114
6.74198 7.43327 22.4374 140 108 92
0.600305 9.3597 35.5148 88 44 24
0.834828 8.27799 31.1328 130 76 64
6.91938 7.55635 22.2906 133 104 87
6.16265 9.59125 30.2291 140 94 94
0.53742 10.1596 36.392 134 103 92
1.20937 9.92682 34.1239 92 41 29
0.813805 9.45712 32.2688 92 42 30
1.38882 11.0197 36.5292 132 87 71
1.59344 11.2175 35.2145 123 76 63
6.11853 11.8544 31.6893 155 136 136
-10.3893 4.41509 21.8379 169 162 152
-8.41052 -12.9402 31.4188 134 134 89
-8.73245 -12.7661 31.437 115 115 73
11.2265 -1.42758 29.3342 109 106 72
-2.52321 -3.12764 34.5311 126 114 88
4.18273 -1.56234 42.2689 117 114 78
2.86414 -0.999919 36.7175 88 64 42
8.59676 -0.178494 31.6338 58 50 23
9.28793 0.0887431 29.7012 136 128 96
9.21371 2.01017 27.4567 182 140 126
5.58746 2.14647 27.6369 69 70 48
7.14064 2.50007 26.3838 167 140 127
5.55304 2.38644 26.3691 77 78 56
7.90694 2.90738 26.8797 118 97 82
8.4465 3.50513 27.0361 141 128 100
2.25534 2.12675 25.9019 72 53 38
5.41518 2.95797 26.0905 55 55 32
9.23632 4.61828 29.4113 66 70 45
4.40787 3.22888 25.7541 70 40 24
9.15599 5.13982 29.0721 94 92 75
5.08871 4.04099 27.2205 124 84 66
3.69318 3.95025 25.6668 79 46 38
6.58766 4.35802 22.1495 131 128 109
-0.982767 4.90452 31.8421 87 48 33
-7.95288 1.5778 23.0506 111 112 94
-0.528555 5.38655 30.5524 94 50 38
-0.794536 6.32346 32.1702 104 58 42
0.503791 9.36994 34.4556 124 86 76
13.7395 -7.80509 22.6149 109 112 80
8.01396 2.27326 31.6919 58 46 30
5.19989 3.27757 25.5032 92 82 64
-0.875763 5.9796 35.4011 138 116 96
4.91462 -0.942201 28.9854 109 111 100
2.39938 2.96533 25.6592 105 70 56
3.36381 4.67564 27.051 76 46 44
6.09799 5.32652 21.8812 104 102 89
6.41338 6.20292 21.2772 180 169 152
5.30637 2.37913 26.8163 66 68 46
13.3119 -7.97795 23.5184 126 124 82
13.1462 -7.50088 23.5771 143 138 110
7.65315 -8.56433 29.8355 150 158 112
5.92747 -7.80343 30.0115 119 124 80
12.0286 -1.90992 31.7282 115 114 80
12.1496 -1.84323 32.7359 146 143 104
11.9839 -1.36979 33.3597 144 140 102
10.3056 -1.40562 33.6728 105 101 71
2.97911 -1.92257 35.217 124 121 91
10.2069 -0.91699 34.6931 154 132 100
10.3024 1.91239 28.3276 178 167 146
2.11504 1.28606 33.9674 45 34 24
6.98613 1.94831 31.0337 46 45 28
-6.284 0.105657 24.761 142 144 106
-1.54861 1.43044 23.0408 42 40 20
4.50935 3.02951 26.2892 62 41 30
2.5886 2.82768 25.1665 101 66 58
2.14453 2.79167 25.2698 143 107 97
5.32133 3.29887 25.4843 91 84 68
2.16534 2.95309 25.1855 112 76 67
5.44373 4.36473 26.8503 100 68 65
-0.965111 3.56595 28.1045 84 36 22
7.16915 4.84819 27.4374 108 77 74
3.25681 4.58123 26.6826 90 56 52
6.29993 5.4427 27.5019 100 70 68
5.33478 5.58611 27.5172 116 85 84
6.22318 5.32497 22.1158 95 94 78
4.41187 5.96019 27.1542 136 107 104
3.39864 7.10867 27.8772 114 76 70
6.3072 8.256 29.3212 96 58 54
4.01221 7.68862 28.3628 98 61 59
-3.53349 4.67106 20.2696 82 64 40
3.99758 8.39336 28.7911 115 71 70
4.69948 9.64065 29.777 104 60 59
1.79401 10.2783 32.0016 132 98 94
5.42362 10.9906 30.9245 78 44 43
4.87871 11.7738 31.3929 152 119 116
5.69233 12.0166 31.8573 128 99 98
4.51435 12.2833 31.9178 165 142 139
3.72844 12.0602 31.5985 142 104 96
7.43244 1.51158 30.7295 44 36 24
-2.43132 1.64995 30.9178 150 102 75
-4.10264 -7.79167 30.6115 83 85 62
5.07267 12.3736 31.7043 160 131 130
-6.86649 -11.3603 31.0961 128 126 94
-1.92721 -3.09997 27.5297 114 112 79
-1.0771 -2.70816 28.589 105 102 73
21.5827 -13.2794 37.2687 186 189 138
-3.95828 -9.1176 31.6514 138 138 90
1.52991 9.17025 31.6301 136 112 110
3.49241 -5.2936 18.0482 133 136 96
3.29463 -5.4619 31.0704 120 122 74
-2.35835 -5.42334 30.9621 88 84 56
3.06296 -4.42658 30.8562 106 106 62
10.3116 -1.78381 34.0071 111 115 80
-2.72511 -2.41479 32.8657 94 67 48
10.0913 -1.41035 36.1689 124 124 90
4.15822 -1.42573 29.2742 74 80 64
4.54842 -1.29384 29.33 58 68 46
10.4122 -0.261574 27.6008 143 130 94
0.340999 -1.08291 25.5453 102 106 66
0.39811 -0.761437 24.9583 94 100 58
0.361424 -0.380681 32.7326 48 48 31
7.48297 0.410232 31.7882 53 42 25
5.52696 0.354969 31.989 68 61 56
4.32547 0.283027 30.211 105 108 96
7.9458 2.92783 26.3081 152 122 101
4.07622 2.47978 26.6658 20 18 14
-2.83816 2.15811 31.3737 136 100 81
-0.860814 1.83897 22.1608 105 112 89
5.76458 3.69637 25.389 94 80 68
6.1887 4.03924 23.0956 41 48 28
1.87696 4.11596 26.284 111 66 50
2.57443 4.52743 26.6924 57 28 26
6.98407 5.47828 27.6949 78 48 44
2.68167 5.12932 27.2424 91 64 60
4.14185 5.39227 26.7633 74 39 38
2.70747 5.39132 27.3924 76 45 40
6.8544 5.65326 21.3124 144 134 111
-0.552718 7.23049 36.2671 124 101 76
3.88857 6.66731 27.7374 84 49 45
2.25278 6.40908 27.5605 74 34 24
2.89838 6.75622 28.2043 84 52 47
2.28166 6.90824 28.6063 86 39 24
3.01516 7.63533 28.657 96 60 54
9.40277 10.4102 32.9953 90 63 57
7.37329 9.82578 30.9083 92 58 54
1.85732 9.37121 32.7611 108 72 62
5.40598 9.58127 30.0574 80 50 50
1.46236 9.30513 31.3925 76 32 24
1.32794 11.0032 36.1861 111 72 56
3.4779 9.93906 30.3768 112 80 72
0.960429 10.0675 32.0154 81 56 39
4.28598 10.4148 30.3668 94 48 44
2.75383 10.3338 31.0792 73 22 11
3.50409 10.5151 30.6836 93 46 38
4.23535 11.2633 31.0768 70 30 26
3.29385 11.4958 32.3943 84 28 16
4.62539 11.8889 31.6882 104 70 65
5.04964 12.3565 31.5935 146 124 123
4.29135 1.19646 30.9441 98 98 89
7.05257 6.79361 20.9986 160 140 122
-4.7486 6.46265 19.3465 118 105 96
-10.1809 3.7881 22.6058 98 92 72
29.1611 4.25289 31.7368 116 124 70
4.08195 -4.37901 11.9045 128 132 80
4.5185 -3.95408 11.5863 93 88 40
-2.32075 -2.17784 33.0357 116 95 66
10.6943 -1.28593 27.6981 123 102 66
8.60876 2.04643 27.8362 71 41 20
13.7128 -7.93086 22.762 78 78 51
4.3714 -5.69597 15.6264 104 108 66
3.68141 -5.44115 16.9735 96 96 54
4.63077 -4.17184 11.7622 106 110 62
4.45615 -3.98253 11.8527 111 118 70
1.96482 -7.98657 32.7434 88 100 60
9.60487 -5.53938 25.1473 74 82 58
8.73783 -4.64845 26.4068 76 84 62
-1.87858 -4.74274 30.6549 84 79 52
3.62119 -4.11513 30.4765 136 136 91
-1.2643 -3.94586 30.4921 72 71 40
2.99855 -3.31331 30.6891 105 102 54
-0.622047 -3.26355 30.435 86 88 52
5.8546 -1.98409 28.3769 72 78 58
2.41848 -2.18466 27.0454 92 91 43
1.88549 -1.84107 26.1248 92 96 61
10.1715 -1.29836 30.8462 89 101 59
5.162 -0.591194 31.6404 82 95 84
3.67557 -0.675091 30.0034 97 96 85
-2.86002 -1.10023 31.6445 146 136 94
3.00437 0.655846 29.617 72 77 60
3.84801 1.20908 30.9549 81 82 72
9.28295 1.79315 31.4149 22 8 5
9.32631 1.66526 28.0991 94 50 15
5.11391 1.42609 31.9131 60 59 40
-3.30298 0.674157 31.1569 112 94 69
-2.99517 1.08782 30.9899 139 100 76
4.11507 2.43184 28.308 24 22 18
9.081 3.11482 26.9996 142 106 90
6.45515 2.72953 25.4044 80 68 50
5.77931 2.89848 25.1005 42 50 27
2.07569 2.90503 27.3037 54 24 16
1.9336 3.37338 25.9523 109 67 47
-0.723903 2.62136 22.5107 96 70 45
-1.27653 2.70134 21.7197 34 44 27
1.94088 3.70058 25.9848 74 32 18
1.80151 4.53138 27.3942 60 20 12
5.12059 5.63592 27.2093 76 50 47
1.40979 5.59611 28.1417 75 29 21
6.79308 7.16164 29.0743 58 26 20
6.99206 7.3458 28.7977 58 27 24
1.48085 6.48351 28.7865 62 20 11
2.92005 7.04527 28.3553 74 41 32
2.21048 8.54107 30.532 86 34 23
3.68487 8.3687 28.8592 101 55 48
3.21832 8.58392 29.3595 106 78 75
2.56368 8.98313 29.968 79 23 14
4.06144 9.20004 29.8293 90 38 29
3.87797 9.79952 29.8173 90 38 33
7.19898 10.7914 31.5293 120 91 89
6.67769 11.4005 31.5186 94 64 62
2.79382 11.8223 32.4268 125 79 64
14.8604 -9.41149 21.4295 100 104 62
0.315465 -13.9095 37.9585 111 112 67
1.30671 -10.7438 34.6811 93 100 66
2.85921 -3.82088 30.6419 110 106 66
6.35197 1.11878 32.0219 30 28 18
-5.20832 0.109022 24.4078 65 72 50
3.21775 5.00677 26.7048 56 23 20
4.50111 6.46735 27.6594 62 25 20
1.78461 6.67977 28.7113 80 35 21
2.14331 9.70718 30.9402 100 42 29
2.43444 6.07269 28.143 58 20 12
-0.0154457 -2.72814 30.377 116 118 77
-2.74323 -1.86049 32.4438 98 79 50
-3.47678 -1.56017 32.2212 146 126 76
2.60204 2.99187 25.8379 64 32 22
-10.3689 4.5426 22.4221 55 56 32
6.36258 9.64215 30.636 86 46 42
3.1537 -7.62517 32.9164 100 108 64
2.55078 -5.92434 32.6574 94 102 56
2.46885 -3.13877 31.5394 90 91 44
9.71198 -1.60462 32.6378 136 136 101
0.828527 -0.322252 24.9051 92 98 73
9.53462 0.891203 27.7922 140 114 83
1.68144 2.81066 27.3993 69 31 21
5.85198 3.85748 24.4939 37 39 20
9.54024 6.01418 30.369 95 75 58
0.971254 8.71786 34.525 80 48 32
0.513887 9.04712 34.046 84 68 52
2.30702 -10.1256 34.3501 101 110 68
2.64387 -9.2626 33.7864 92 102 55
-4.98563 -8.4045 31.348 107 106 62
-1.96357 -6.768 31.6097 41 50 24
9.23323 -5.10712 26.0295 64 71 47
7.08881 -3.14644 27.3692 64 70 56
11.7828 -1.90652 29.206 61 44 12
10.2386 -1.7074 33.6703 100 103 68
11.0525 -1.35616 28.1884 128 104 70
12.0547 -1.27571 28.3384 152 160 118
-1.22539 -2.23504 33.28 68 59 39
5.86908 -1.60774 30.5996 79 77 60
-2.72999 -1.84357 32.8099 104 87 52
6.10648 -1.21067 31.9746 69 65 54
9.44889 -0.961939 34.5025 134 112 88
10.9037 -0.625282 26.9814 138 100 78
2.99968 -1.13891 29.0725 70 73 61
9.87498 -0.750138 34.8982 112 94 66
2.97081 -0.0727547 30.7318 77 72 49
-2.69257 -0.568308 31.0707 106 104 65
4.54936 0.249708 30.8308 94 99 90
10.4767 0.976079 28.5283 167 132 122
-4.57365 -0.0986144 25.0265 58 62 38
7.42843 1.37031 30.2196 30 26 14
8.93249 2.56831 27.3361 108 62 37
7.71963 2.72854 26.9222 124 100 88
-2.44146 2.16108 31.1806 118 72 41
4.54769 2.62314 27.521 20 19 14
-2.52225 2.50276 31.3201 153 122 96
-0.283289 1.97258 23.2255 50 52 35
1.65733 2.80212 27.3453 58 27 16
5.20173 3.47236 24.8847 62 53 38
0.636817 3.68199 27.3146 140 88 64
0.666288 4.39408 27.6406 160 114 103
1.29713 5.64416 28.554 57 16 8
0.448376 6.08528 29.8042 88 48 38
3.52468 6.02061 27.4858 61 25 20
-10.5269 4.75165 22.9222 48 47 24
-3.32987 5.14097 20.2359 78 78 62
8.18997 9.51807 31.3957 68 26 17
0.801388 9.52624 33.3259 64 17 8
1.18789 10.826 34.1731 104 58 39
-3.19462 6.2808 19.4468 90 82 60
14.8485 -11.6601 20.3228 127 131 78
13.2004 -7.42015 23.2814 100 100 68
4.79749 10.7007 29.9688 68 26 22
3.47364 2.6711 26.2709 14 7 4
12.6782 -3.23601 28.6211 132 139 96
8.5871 -0.875456 34.1985 59 36 22
-6.90588 -11.1825 31.6126 74 76 58
3.02666 7.42829 28.8261 99 52 35
-1.77481 -7.65935 24.607 112 116 70
1.14214 -8.73818 33.9264 118 124 78
10.1017 -5.92262 24.905 90 96 72
9.03385 -5.60471 27.3081 94 100 54
0.583659 -4.89937 31.8664 88 96 55
1.16496 -4.23733 31.5112 84 90 40
2.06393 -3.92441 29.502 96 99 52
2.78387 -3.85854 30.392 104 104 62
11.5625 -1.50901 28.3291 102 67 36
0.670181 -2.02363 27.4318 95 97 60
9.53368 0.915037 27.7853 104 63 30
6.41839 1.9769 29.2217 36 32 20
2.53695 2.14478 26.5217 50 30 17
6.91251 2.77447 27.1583 54 50 32
5.09466 3.20478 26.3536 43 36 24
7.09112 5.54738 27.8274 65 33 28
0.248445 6.66377 29.7837 80 33 20
8.55298 8.14441 30.848 65 28 20
0.664691 7.90413 31.6593 64 19 12
6.86954 7.17453 21.2409 126 100 87
8.18049 11.5733 32.7381 134 116 112
4.13436 -4.55744 19.6386 115 120 98
7.97547 -6.37342 33.8563 114 116 84
8.11579 -6.27645 35.952 62 68 43
3.18033 -5.48046 30.632 121 125 76
5.94391 -4.94596 32.6746 93 100 60
5.66507 -3.41088 26.9249 108 113 88
3.59451 -2.74788 27.7695 116 118 84
10.3907 -1.65011 30.1275 94 106 64
7.91546 1.86146 28.6152 18 8 6
5.87339 2.20046 25.0667 50 44 34
6.73582 3.32416 24.9781 68 57 39
7.97094 6.56655 29.6439 74 45 39
9.88317 8.18732 32.578 104 80 70
9.5288 8.8262 32.1321 104 84 70
9.34762 9.38407 32.4962 98 74 61
9.03244 11.9217 34.581 124 104 95
8.59695 -11.2125 34.2221 91 96 53
10.9756 -6.95756 24.8 96 98 54
-3.53645 -8.24096 31.3622 54 59 36
8.95874 -5.54578 27.1228 96 102 60
-4.55668 -4.45609 36.2153 60 60 27
12.7059 -3.1917 28.7366 132 144 98
10.9392 -1.86908 30.1677 64 72 36
10.5558 -1.3857 34.1603 100 108 71
5.88307 -1.37962 29.297 122 108 78
-3.47133 -1.59643 32.0666 142 111 70
8.78059 -0.983254 36.796 60 30 17
-3.72356 -0.174093 30.5232 58 62 39
4.52607 0.439565 30.9271 82 85 76
1.79827 0.435159 28.3616 57 63 51
-2.66497 0.375298 31.0678 74 65 40
3.49061 1.23758 31.3042 49 52 38
2.06232 1.3528 30.9464 24 26 14
0.952669 1.19343 24.7433 50 49 38
0.661766 1.31263 25.9814 29 28 18
6.02579 1.8852 28.7218 28 30 17
8.25028 2.25835 31.1889 30 16 10
0.536332 1.5001 24.3092 42 44 29
0.415678 1.81391 24.6238 26 26 18
8.31506 2.57809 27.5827 88 52 31
4.30167 2.51981 28.8037 26 26 18
7.37468 2.5635 25.3778 126 100 86
6.23993 2.66742 25.0384 56 50 32
5.02949 2.79366 25.6454 42 42 24
8.44895 3.46391 27.0035 114 84 76
5.21696 3.11014 24.7693 40 44 22
-1.70546 2.45137 21.814 72 82 48
5.36854 3.82125 24.4966 66 56 46
-2.40568 3.08107 21.5863 93 90 58
-2.81433 3.72428 20.9341 91 86 59
-2.29323 3.69789 20.5702 80 84 64
2.67416 5.24587 27.2215 108 86 81
-2.49987 3.93023 20.5562 89 90 72
-2.84555 4.32275 20.2061 82 88 64
-2.48931 5.29335 20.411 92 88 66
7.30424 9.81955 30.6305 72 34 32
8.73707 10.8734 32.9134 88 54 44
4.19499 9.46302 28.8905 92 38 30
-4.74015 6.46362 19.3421 132 120 109
6.89002 11.4156 32.0821 103 72 68
4.54735 11.2544 31.4923 79 32 26
4.08254 11.7371 31.6023 92 46 35
13.515 -8.19743 21.7823 126 128 88
11.1197 -6.53345 23.8443 69 72 44
1.26832 -3.33155 30.2244 51 56 24
-3.19915 -0.608856 30.9039 106 78 53
8.93765 1.76274 27.9327 96 60 45
3.23379 6.23129 28.0989 64 27 18
4.63223 8.62032 28.8372 82 31 24
3.98211 2.69112 26.2203 22 12 7
2.69522 5.36603 27.2284 86 57 52
0.658261 -11.1842 35.3662 112 115 76
1.07022 -8.63014 33.6014 106 110 66
-2.51098 5.32416 20.3828 104 99 77
1.38916 8.93799 31.2897 102 56 46
-1.24546 -6.62645 32.0623 94 98 59
-0.00782225 -5.36823 31.754 86 88 50
0.709594 -4.33663 31.5499 68 73 40
1.9109 -3.50419 30.9842 96 94 52
-0.0307001 -1.83922 28.7258 96 98 54
0.373339 -1.75747 28.0635 154 153 105
11.4197 -0.574217 27.3607 144 150 114
9.75026 0.0993899 31.3694 42 36 18
2.48117 -0.0950591 32.5076 69 62 44
1.5124 0.904077 28.1559 26 25 16
2.68672 2.01559 26.5506 64 49 35
2.31495 2.06656 25.9187 32 26 21
-0.158499 3.9713 28.3885 64 31 24
-0.0370832 4.33953 28.1452 104 61 52
0.677538 7.94844 31.8744 63 18 12
0.330171 8.27307 33.0111 64 18 8
-0.132536 8.65872 34.1628 116 83 60
0.386488 10.0623 34.5391 121 90 74
8.70319 11.373 33.5077 86 58 47
0.27306 -15.9772 41.5624 100 106 50
0.807061 -10.3987 34.7957 114 118 75
4.05867 -5.09631 15.02 88 86 50
2.79446 -8.47549 33.0898 97 108 60
4.03633 -4.90886 16.2847 100 104 78
3.01206 -7.58143 32.6425 104 115 68
3.30174 -6.62942 32.4422 106 113 69
3.90406 -4.5416 19.6663 81 84 80
4.25753 -4.50812 19.841 104 112 90
8.41404 -5.10693 27.5238 77 82 38
4.34255 -5.42229 32.0094 144 146 100
3.07994 -4.77402 30.3888 78 86 34
3.65001 -4.60887 31.1401 110 112 66
5.17914 -3.92686 25.0458 86 96 64
7.77809 -3.75979 27.3548 72 75 60
2.72356 -3.08283 23.2682 84 81 56
6.15148 -3.21597 29.5331 105 109 76
3.70543 -2.45535 24.999 78 85 76
10.3945 -1.58204 30.004 72 80 41
10.2057 -1.302 30.8878 66 76 37
9.86789 -0.671124 26.8322 130 120 93
10.7855 -0.124454 32.5766 116 96 84
7.14892 -0.14028 38.609 32 32 26
11.1016 0.0888498 32.4618 107 80 58
-3.53959 0.125392 25.7045 54 60 46
10.6135 1.05075 31.7055 51 28 14
9.95714 1.57684 32.5757 31 11 6
6.1684 2.1047 27.0182 62 58 42
6.06877 2.09515 24.1546 24 12 7
6.25009 2.38507 26.0929 72 68 51
-2.19225 2.70008 30.4471 142 114 86
8.83062 3.00921 26.7768 88 52 34
-2.07745 3.36596 32.5032 123 100 78
8.39743 3.77186 28.0602 109 81 74
9.92916 4.33327 29.4863 110 100 90
7.55675 3.75758 25.6329 112 83 74
9.40783 4.3797 29.5756 48 24 16
-0.196402 3.62037 28.078 141 100 78
9.14224 4.61789 27.8473 110 99 85
5.9959 4.37707 22.4021 44 49 27
-1.06841 5.48134 30.5659 116 103 79
6.81208 4.78923 22.3031 106 96 79
5.09689 5.52555 27.0952 106 79 76
-0.838413 6.27828 32.1634 124 98 74
-0.740016 7.09868 34.3816 126 105 82
7.7888 7.16703 29.8571 100 72 69
-0.417228 7.4162 32.967 116 88 69
6.70725 5.5814 20.9579 102 96 68
7.62546 7.84064 29.2993 78 46 42
8.53438 9.07945 30.7847 60 27 21
6.39257 10.6459 32.0061 91 49 46
7.83233 12.3844 34.6161 120 100 97
5.25344 -1.90424 30.1013 52 57 36
9.81268 -0.304908 34.9079 43 34 15
11.0143 -12.6902 29.7286 125 128 86
0.189721 -15.4728 40.2827 95 100 50
11.7654 -7.37744 24.2115 100 102 61
1.0994 -8.53713 33.2208 87 93 52
11.4736 -6.82679 24.0091 67 68 48
8.14585 -4.88341 27.1432 84 90 48
9.18562 -4.59305 26.3809 72 79 55
3.80323 -3.79057 21.4197 94 98 93
7.65965 -3.75821 26.1459 46 53 37
-2.9776 -4.2036 35.5364 93 92 44
6.95877 -3.05915 26.9562 54 58 44
7.21179 -2.63407 27.9563 118 126 98
11.7857 -1.9622 28.9356 69 56 28
7.78743 -1.44296 37.4836 156 124 82
8.67354 -1.41303 37.3161 119 110 71
-0.487572 -0.480433 25.6435 102 97 54
11.3564 -0.545599 27.1479 134 149 110
-1.28748 -0.109701 26.3768 56 59 41
4.54568 -0.0023077 30.8346 87 94 84
-5.75474 0.241239 26.3323 56 61 37
-7.4335 0.566395 29.3193 58 61 40
0.229662 0.431296 24.7181 53 64 42
2.70628 1.99595 26.0525 52 40 33
2.34498 2.04679 25.5672 35 26 23
7.85583 2.26807 26.3415 66 38 30
9.20666 2.37928 27.1971 116 73 58
2.60541 2.48349 25.7722 104 79 71
0.0614744 2.82975 28.6038 58 29 18
-1.99487 2.37082 22.2332 94 88 58
0.276964 3.0103 28.1387 81 45 28
8.89133 2.99172 26.8111 89 48 31
3.34551 3.25178 28.9154 50 24 19
6.27147 2.9012 24.658 59 51 32
9.52297 3.64809 28.4717 100 74 62
7.7768 3.45639 26.2228 151 124 117
7.29527 3.47457 26.0341 138 112 104
-0.182147 3.9308 28.1793 78 43 36
6.38598 3.48587 23.8647 90 80 60
1.6686 3.9317 26.0811 158 109 82
6.41957 3.82851 23.5071 54 36 22
-1.87116 3.52304 21.585 103 108 89
5.47958 4.15762 22.9977 60 50 34
5.96055 4.31795 22.1761 37 40 20
5.77146 4.70295 23.0127 50 42 24
2.79124 6.17023 27.7826 78 48 42
4.40656 6.54009 27.7835 70 28 22
3.51117 7.18698 28.1537 82 42 33
4.79361 8.29965 28.6479 62 20 15
2.69302 8.53071 29.6016 88 36 22
6.61755 9.42743 29.984 78 38 34
3.83616 11.894 32.1431 97 58 54
10.6673 -6.4064 24.5613 60 68 42
11.2969 -1.63269 28.8041 70 52 22
-3.2258 -0.245105 30.1753 51 56 34
1.06118 0.632876 28.3999 30 28 20
8.8745 1.67818 27.3914 78 38 18
2.91474 2.2635 26.3462 60 46 34
-6.17943 -10.4766 31.4939 82 80 60
-2.38066 -5.39638 30.6287 110 106 70
3.45487 0.401346 30.3915 88 84 70
-1.54733 4.01965 21.0682 95 92 71
1.89099 7.74411 29.7151 79 30 20
11.5528 10.6811 36.8431 132 127 121
-2.67693 -7.85803 31.6913 94 96 56
-1.95432 -7.23356 31.8922 94 96 50
-1.15624 -5.28592 30.5725 54 58 34
0.497581 -2.02263 27.5504 144 144 100
2.56472 -1.69655 27.9183 58 58 28
0.188803 -1.58371 26.4994 93 94 63
2.43001 -0.905329 32.4911 72 67 46
9.42842 0.066292 29.8494 40 35 18
9.62418 0.432925 27.6823 108 75 44
6.85347 1.76113 30.8592 22 21 13
8.98026 3.29513 27.1056 97 60 49
-0.0490869 4.38767 28.5437 95 52 41
7.65338 4.38497 26.5152 98 72 67
6.24095 6.63375 27.6544 90 59 54
0.33741 8.15494 32.2929 64 20 8
-0.195511 8.71498 34.3795 124 92 70
6.23508 5.95011 20.5844 74 52 23
0.402612 10.1697 34.7007 116 85 71
3.61461 11.8496 32.438 124 78 63
10.4994 -6.65601 25.4732 105 108 66
6.66601 -3.6028 31.1596 119 124 90
3.94922 -2.68631 24.1019 76 84 76
6.17987 -3.16221 31.4673 60 65 40
-1.07837 -0.0842523 25.5938 58 62 43
0.147945 1.65611 23.97 46 50 31
6.17729 2.31454 25.6969 64 57 44
5.99452 6.31566 28.2765 58 28 24
13.7913 -8.21547 22.7841 122 127 88
9.02603 -5.03688 25.6491 68 76 53
5.95202 -2.45647 29.3116 54 58 32
4.23317 -1.39479 30.144 72 80 65
8.21782 0.0553621 33.3251 55 42 28
-2.96362 6.14307 19.6578 75 70 45
6.31045 -6.59316 32.7209 84 87 46
3.79082 -4.44206 19.1555 72 71 62
6.0955 -5.80528 32.5557 74 82 43
4.13413 -3.72881 21.8813 80 88 78
4.15603 -3.27682 23.0577 69 78 62
3.64951 -2.78525 23.6385 77 82 66
3.58356 -2.40881 24.6363 61 66 52
5.80764 -1.96378 28.0868 70 74 57
7.08487 -1.62381 37.6338 149 135 104
11.0032 -1.24872 27.9652 80 60 28
3.39297 0.367604 30.0613 94 90 75
9.84421 0.725343 26.8886 142 108 100
10.9343 1.36533 29.8668 130 110 87
9.71874 1.40278 27.6142 126 94 78
8.96904 1.3549 27.2746 86 52 33
4.34071 1.86352 30.8974 18 20 7
10.3976 1.75782 29.0137 119 96 71
9.45287 1.678 27.2817 138 104 98
2.92149 1.94733 27.2021 20 12 7
9.71446 2.02593 27.6358 123 100 88
-0.465906 2.52466 29.9976 74 57 42
-0.868798 3.24147 28.4718 114 72 44
-1.32797 3.00944 21.6567 16 26 10
-1.96532 3.29517 20.9411 80 81 58
-1.26183 3.35658 21.6241 74 76 55
-1.37921 3.60289 21.4509 50 52 30
7.81352 4.35739 27.151 82 56 53
5.6487 3.89858 22.9837 36 38 18
-2.4586 3.92269 20.363 87 90 70
8.12848 5.27082 28.4342 56 28 22
9.51008 5.66255 30.2416 96 74 64
10.5563 6.23538 33.5564 110 94 80
4.08057 5.69755 26.6993 82 39 28
8.23838 6.36703 28.6513 62 32 24
8.7316 7.22607 30.3593 54 22 14
10.3313 8.72327 34.3131 87 68 54
9.24667 11.4085 35.8767 101 72 65
9.46758 11.3927 35.1397 116 100 93
8.15734 10.9815 32.4478 106 80 75
6.24548 10.8465 31.1078 72 29 26
9.97434 -5.86448 24.6679 73 76 56
3.57216 -1.04611 28.7566 68 71 62
7.00965 2.19638 31.3583 24 15 11
6.96874 3.92547 25.6792 60 21 16
2.68073 5.07577 26.9704 98 68 63
8.2322 5.97915 29.0448 64 34 24
-3.62513 -6.90288 30.7753 92 86 50
3.83803 -3.10703 22.5818 84 90 76
-0.476743 2.35372 26.0189 52 37 18
9.2889 2.89214 27.4189 126 92 86
0.452864 5.56955 28.8369 48 18 13
0.304772 6.07554 30.4285 89 48 33
0.363013 10.3551 35.1341 112 78 64
14.9546 -9.58542 21.7075 108 116 74
14.4224 -8.55825 22.002 119 126 76
13.6144 -8.11036 22.8053 44 45 12
13.4474 -7.60654 22.8541 129 131 89
13.198 -7.46098 23.366 106 110 78
3.66945 -5.35977 15.6326 122 121 75
3.60254 -5.23818 16.5775 92 87 54
3.73894 -4.98962 16.6407 65 59 42
1.26181 -7.61002 32.6212 96 101 56
3.28049 -4.99798 18.3257 132 132 97
3.7334 -4.70613 18.0804 77 74 62
3.08175 -4.64446 20.0458 76 72 48
2.94627 -4.26702 20.3545 84 80 54
0.671043 -4.26904 31.2122 66 72 38
2.7467 -3.12925 23.2833 96 92 63
3.94044 -2.68521 24.1991 74 82 71
2.44746 -2.33776 28.3728 102 98 62
10.3378 -1.36694 33.1213 128 140 102
10.8349 -0.200868 27.0436 128 96 82
0.398927 0.104979 27.9192 55 59 44
-1.5541 0.409149 24.9052 88 75 52
-1.05038 1.4022 21.7336 90 80 45
3.49975 1.94769 30.2957 34 28 18
-1.00249 1.94069 24.5258 50 56 27
-1.08791 2.09524 22.286 78 84 54
9.95512 2.98421 29.0495 101 80 71
10.8876 3.39489 31.5679 128 118 104
10.82 3.87111 32.5931 70 47 32
6.52128 3.38684 27.6147 67 58 36
-1.47989 3.85267 29.9313 122 99 78
10.6634 4.2933 31.711 114 99 89
-1.13363 4.95238 32.0091 120 92 72
10.3654 4.65262 31.1447 72 45 29
-1.54978 3.47471 21.4313 49 54 37
11.0105 5.06486 32.9076 90 84 70
-1.06217 5.41426 31.8299 110 86 63
7.24168 4.83628 27.3505 50 17 14
-0.779508 5.80044 31.7514 122 92 68
5.0745 4.89056 26.6393 60 29 24
1.80304 5.49329 29.8296 65 23 15
-0.767263 6.16765 31.7372 114 89 66
7.1353 5.53876 27.9048 72 58 38
10.1252 7.60327 32.7373 102 80 64
5.14904 6.97073 27.1156 120 94 88
7.48691 7.12164 27.5674 88 66 42
0.409208 9.04396 33.2205 120 86 67
9.83197 9.07983 33.2238 107 87 74
-3.0232 6.08631 19.8692 58 61 26
9.06075 8.94473 30.8664 105 81 75
6.69592 8.65655 29.4884 82 42 38
6.51659 8.74315 29.5302 85 41 36
9.46232 10.0584 32.5167 108 90 81
9.05765 -11.2724 32.2927 100 110 66
8.72049 -10.0628 34.0878 100 116 66
6.92727 -7.82627 29.4396 78 90 50
8.37773 -4.53014 25.733 72 76 57
5.29607 -1.28215 33.2689 70 76 62
10.3265 -1.00008 35.4171 90 78 50
9.61822 -0.683161 33.8119 108 97 71
0.42668 -0.298047 29.964 110 118 92
8.04782 0.276334 33.9909 43 36 22
-0.0274953 2.19917 28.9476 50 28 16
-0.813303 1.77989 22.4503 88 96 64
-0.82861 2.30079 27.3093 32 40 19
-0.87477 2.75478 27.9928 110 80 50
5.9402 7.17142 28.083 39 18 12
8.64228 10.5565 31.9229 83 56 52
0.956068 2.61213 27.8529 32 12 5
6.96831 -8.98671 30.3095 101 110 66
5.2889 -7.04227 29.8769 121 124 76
3.74567 -4.7068 18.0996 76 70 57
6.0476 -6.49284 28.6317 102 112 67
3.88635 -4.67097 18.7064 66 67 54
3.53478 -4.22941 19.6071 80 74 62
4.06618 -4.10752 21.0251 64 69 56
4.2535 -4.13854 21.4354 84 90 78
8.42111 -4.55198 25.9034 87 91 70
3.93106 -3.10585 23.1997 73 76 60
0.569948 -3.56922 31.0685 67 70 40
7.17781 -3.33239 27.3911 37 42 29
-6.28097 -3.8475 38.1616 152 144 86
0.862415 -3.30285 31.0088 59 64 32
4.73169 -3.02607 26.6659 99 104 68
3.93877 -2.29795 25.2311 70 77 61
3.14806 -2.15522 24.9667 68 69 52
-2.43348 -2.30694 34.0109 106 94 55
-2.60613 -2.00197 33.9615 134 124 68
12.441 -1.92124 29.0941 138 144 108
7.25595 -1.94366 38.2391 145 139 94
10.5522 -1.62891 30.4782 83 89 52
1.70954 -1.19628 30.0857 54 56 25
6.73311 -1.35184 37.8416 88 59 42
9.92339 -1.33771 35.0333 92 86 54
5.22997 -0.934709 30.4834 36 46 34
9.51813 -1.08568 36.6076 91 74 49
5.7581 -0.474365 32.6255 36 28 22
4.82624 -0.512193 29.2418 51 59 44
5.68473 -0.0760814 33.6238 28 24 16
0.408955 0.105366 27.7633 48 48 36
-2.0599 0.303097 27.1241 106 88 67
1.13118 0.264164 28.3546 46 44 32
5.16947 0.350595 30.5178 48 58 39
9.46978 -12.2863 33.6124 104 118 76
8.68532 -11.5482 33.9497 109 117 72
8.98444 -10.7911 33.2909 96 104 58
7.56566 -9.41719 34.3673 87 98 60
9.72194 -5.94287 24.6699 100 104 67
5.85691 -4.58876 32.0788 66 72 36
3.50693 -1.97108 27.1327 48 56 42
-3.02265 -0.130661 25.5959 52 52 30
-0.633407 0.0903225 28.3013 86 94 58
4.93148 0.682439 30.9929 58 66 50
-1.31768 2.47966 21.732 82 94 66
-3.10002 3.49189 31.3471 67 65 44
-2.16057 5.26696 20.5361 70 68 44
-2.5639 5.48634 20.7015 50 50 23
-1.86917 5.20342 18.5842 56 56 28
6.41503 6.21306 20.8586 108 78 42
8.37636 11.0445 31.9188 96 71 63
2.08571 1.11581 27.3934 36 38 26
14.0837 -8.95478 21.2113 83 88 44
6.92485 -6.12927 31.2111 46 61 35
8.97406 -4.64861 25.7025 51 60 41
8.12614 10.0313 30.6497 78 39 32
6.61805 10.8397 31.2064 72 31 26
8.34645 11.7258 33.6438 106 88 83
-4.62768 -0.245344 25.5862 73 72 30
-5.39167 0.24276 24.5134 44 47 26
-3.49345 0.136822 25.5212 38 44 28
-1.9062 0.86001 33.6135 105 91 54
-0.502556 1.90949 29.9046 49 32 19
-0.924693 2.52869 29.5647 68 50 40
11.2835 2.31381 31.2916 111 120 85
10.8553 2.72848 31.8627 68 44 28
2.72606 3.02787 27.2738 51 24 16
-1.78791 3.49584 31.4977 148 120 96
-1.32182 3.7076 30.5361 139 110 98
-0.720608 4.35446 30.8587 84 38 24
5.51533 4.14007 22.6385 59 53 32
3.71213 4.91555 25.9696 60 21 15
0.538039 6.23284 29.5662 83 52 44
2.54747 6.61639 28.1269 67 25 15
-2.74421 5.94133 18.589 62 62 28
6.92949 6.45817 20.7703 100 64 41
1.02727 10.802 34.7202 99 54 40
-4.99537 -4.35934 35.6265 89 84 40
3.22315 -1.87254 26.5913 60 67 52
3.12308 -1.66304 26.8568 59 65 50
4.35544 -1.67585 28.3166 115 121 90
-5.90202 0.0530194 24.8832 94 92 50
0.98568 1.23498 24.5869 66 66 54
2.30968 1.15163 26.3221 43 52 38
11.0928 1.17482 29.8931 122 111 80
10.413 1.67742 29.0217 112 92 62
0.473713 2.41119 27.6489 39 15 10
11.3545 3.02554 32.151 86 92 63
-0.619511 3.56272 28.304 102 56 33
-1.39363 4.58664 31.9024 132 108 86
10.9475 4.65779 32.4344 114 106 92
5.06442 5.41265 26.7505 88 58 54
5.08244 5.69716 27.0685 66 38 34
2.29238 8.93443 30.1519 96 38 26
1.24444 11.0934 34.7605 110 72 51
1.73264 1.73563 26.1146 29 27 18
5.78313 -1.93641 27.8486 68 73 59
1.83531 -1.62989 28.5402 95 100 64
0.385013 -0.71211 25.0361 86 94 52
-6.24792 0.25949 23.969 94 94 54
0.117428 0.719168 23.8311 48 60 40
6.10444 0.19615 32.2315 24 14 10
-7.94755 1.09871 23.7414 112 108 70
-6.81168 1.16933 23.3627 78 78 54
-3.0595 0.947663 30.7956 108 72 45
-0.363791 1.09048 22.7445 88 98 69
-7.94003 1.683 23.7043 96 92 72
-2.96076 1.60098 31.3171 135 98 77
1.93045 2.6075 27.5995 51 32 24
